# .PCD v0.7 - Point Cloud Data file format
VERSION 0.7
FIELDS x y z
SIZE 4 4 4
TYPE F F F
COUNT 1 1 1
WIDTH 1116
HEIGHT 1
VIEWPOINT 0 0 0 1 0 0 0
POINTS 1116
DATA ascii
-3.215595335 2.858988009 5.4333508010000005
-3.014681488 3.340273723 5.6537278
-2.878309041 3.496749327 5.802469328
-2.860775217 3.511160612 5.793920532
-2.993162163 3.256319091 5.5037666110000005
-3.007932939 3.224815056 5.451156199
-2.7352551 3.1915064899999996 5.298650265
-2.809915319 3.3421427009999998 5.5027518419999994
-3.1871426850000004 2.879470587 5.345137417
-3.061888926 3.169129044 5.398719013
-2.463584393 3.3678330479999996 5.320139974
-2.942228317 3.121744096 5.303462595
-2.983688004 3.09405569 5.284016952
-2.98702158 3.122066334 5.311724171
-3.2574404029999995 2.915911563 5.69701083
-3.2487366349999998 3.1908363100000003 5.651484802
-2.869627252 3.214670345 5.3881011899999995
-2.49232538 3.3033944670000004 5.282936618
-2.503058873 3.3491034060000002 5.30359298
-2.662846446 3.014934994 5.165722221
-2.561770938 3.252103925 5.200721696
-3.118526936 2.974459343 5.265767127
-2.584697306 3.244511411 5.207882822
-2.6001123710000003 3.308163956 5.245591328000001
-2.6774318889999997 2.93857269 5.059587955
-2.772063203 2.947853878 5.138269067
-3.109379113 2.763161436 5.096653104
-3.063126281 2.814838663 5.081272125
-0.6234091241 3.723734617 3.874123096
-2.686876431 3.177597746 5.276631564
-2.468888089 3.267997503 5.285781622
-2.601060458 3.116549365 5.2682019769999995
-2.6480538769999997 3.073611669 5.262381583
-3.030548058 2.927126177 5.159958825
-2.451954782 3.048449755 4.923166707
-2.767344378 2.887784876 5.059336871
-3.0717264859999998 2.94100903 5.198515952
-3.089859895 2.9796283690000003 5.235497653
-3.125416115 3.142239898 5.413232744
-2.899116464 3.158971295 5.329689384
-3.210921213 2.694997378 5.313079804
-3.1829651450000003 2.713843063 5.24099879
-3.177261353 2.7783075349999997 5.25640212
0.07062325603 4.316573218 4.689039662
0.05061555421 4.36335206 4.728715867
0.1193350763 4.329295829 4.707168788
-3.162512928 3.119385242 5.4452698680000005
-2.975525148 3.166628256 5.3742162879999995
-3.185550123 3.022798151 5.428940058
-3.163283318 2.8112422670000003 5.2410043779999995
-2.451747097 3.2236807050000005 5.21363765
-3.270300105 1.77384261 5.552032217
-3.267173842 1.7139283939999999 5.580548942
-3.28129977 1.755551249 5.605491251
-3.2367587089999996 2.875500545 5.540915206
-3.229521587 2.9051868250000004 5.513466895
-3.147816658 2.804461867 5.203354359
-3.092045523 2.7952581640000003 5.097582936
-2.588349208 3.1516496089999997 5.268331617
-3.0498595909999997 2.7648113669999996 5.029536039
-3.117394075 2.8561649840000003 5.1826924089999995
-3.207883984 2.984397858 5.472313613
-3.205868974 2.3718629030000002 5.135287344
-3.191261366 2.4037148800000003 5.112117156
-3.122201376 2.7109298859999997 5.090924352
-3.1457792970000003 2.580621652 5.067289621
-3.260566294 2.854411863 5.697346106
-3.251929209 2.8791999440000002 5.6627184150000005
-3.1536240129999995 2.940712497 5.3034760059999995
-3.1337346879999997 2.948614396 5.276095495
-3.0795486640000003 2.701996826 5.003977938999999
-3.061830066 2.98589319 5.212995782
-3.033762984 2.9722809789999998 5.193266273
-2.9727101329999996 2.988548577 5.191992223
-2.889997885 3.014574014 5.199084431
-2.832175046 2.976998873 5.16917035
-3.288929537 2.219074033 6.114247441
-3.2969001679999996 2.222580276 6.408029795
-2.825707942 2.891626209 5.0819456579999995
-3.2635882499999997 2.520488203 5.408801883
-3.259055316 2.5771282610000004 5.401292443
-3.247795999 2.537980489 5.34389019
-3.1343717129999997 2.75661312 5.139371753
-3.1597502530000003 2.765545994 5.203811824
-3.2178319990000004 2.617732808 5.295378715
-3.229662031 2.642997913 5.342701823
-3.25528495 2.783424966 5.651863292
-3.3036999400000004 2.8144776819999997 5.914596468
-3.340982273 2.8612824160000003 5.976784974
-3.304937109 2.8934050350000002 5.9274293479999995
-3.184513375 2.384701744 5.059519038
-3.298878297 2.2638292979999997 5.73657155
-3.304788843 2.313650213 5.725169182
-3.2893668860000003 2.274773084 5.6640870869999995
-3.298611194 2.352617681 5.680399760999999
-3.1996693460000003 2.655862458 5.255679414
-3.183246404 2.647470683 5.2063792939999995
-3.23192142 2.5676667689999997 5.305179581
-3.2307434830000004 2.528493106 5.286816508
-3.3275820310000004 2.662152797 6.141100451
-3.343790025 2.702435106 6.134171039
-3.415775672 2.7023706589999996 6.279762089
-3.309315071 2.449965291 6.032628939
-3.3265672619999997 2.430243231 5.902453512
-3.352048621 2.590173297 6.284625083000001
-3.3893827350000003 2.604868263 6.323379278000001
-3.2701589170000003 2.903072909 5.761529878
-3.260203078 2.692883275 5.572392792
-3.3631455150000003 2.557135373 6.399904191
-3.364871442 2.537774108 6.4343445
-3.396894038 2.558231167 6.4249053599999995
-2.882471867 3.4964784979999997 5.806154013
-3.2403659080000002 2.5970181450000003 5.348233506
-3.3272635189999997 2.686567046 5.958386882999999
-3.315529972 2.936381474 5.956450105
-3.3693011850000003 2.835695073 6.005941331
-3.281537071 2.900275588 5.836712196
-3.2479215409999997 2.639697865 5.397472158
-3.23038809 2.6789231229999997 5.365549773
-3.2426696269999997 2.875745296 5.576274917
-3.268559277 2.855700999 5.768250674
-3.3479008820000002 2.927667648 5.994884297
-3.256514296 2.718663961 5.6288935239999995
-3.329952434 2.666277811 6.092499569
-3.3841975029999998 2.881120704 6.030285731
-3.285552189 2.728834376 5.83633557
-3.181572631 2.538096532 5.153982341
-3.17950584 2.584089153 5.159709603
-3.164809197 2.5811243800000003 5.121463165
-3.326730058 2.549465746 5.885844678
-3.315196931 2.648527734 5.880967528
-3.31030786 2.565862238 5.813166498999999
-3.263721988 2.669268288 5.503658205
-3.263995796 2.627697028 5.4456572979999995
-3.329218924 2.632930502 5.981633812
-3.3617824320000005 2.497749776 6.460097432
-3.4027829769999998 2.5385992600000002 6.463026255
-3.374182805 2.799499221 6.014563516
-3.385456651 2.811474167 6.027920172
-3.372316062 2.959777415 6.024292484
-3.4556064749999997 2.508113533 6.518763304
-3.3883385359999996 2.714629285 6.244422868
-3.400383145 2.755195089 6.233803555
-3.3770274369999997 2.732366323 6.187081337
-3.33164148 2.604649216 6.220503896
-3.310581669 2.523788251 6.221519783
-3.330300748 2.565127425 6.277926266
-3.313811496 1.265809406 6.284753978
-3.3187817779999995 1.311479788 6.349729002
-3.315959871 1.351285074 6.28862679
-3.320818767 2.596089989 6.047217548
-3.2919444139999996 2.6333430780000002 5.805267766
-3.272025287 2.646156028 5.757281929
-3.349507973 2.563425899 6.344346702
-3.258654848 1.600171253 5.5691815909999995
-3.261588514 1.6646487639999998 5.595836043
-3.271432966 1.6270605850000002 5.628167093
-3.441539407 2.555820718 6.441533566
-3.419005498 2.454940975 6.572982669000001
-3.419153765 2.4576867 6.564621627
-3.4325838089999996 2.458485775 6.587325036999999
-3.4240871669999997 2.461218648 6.567707658
-3.399582952 2.441328764 6.564506143
-3.418553621 2.451679856 6.5774559969999995
-3.4287016839999995 2.464209124 6.566913426
-3.432117403 2.5767931710000003 6.4074970780000005
-3.375731036 2.420137264 6.501642615
-3.3715680239999997 2.420420758 6.497960538
-3.31495963 2.370045334 6.465739012
-3.3469900490000004 2.387962863 6.544330716
-3.343849257 2.427201159 6.479343772
-3.412657231 2.520887926 6.492586434
-3.417635337 2.445144393 6.586414576000001
-3.424583375 2.434780635 6.607217342
-3.4167166800000004 2.43860893 6.595370172999999
-3.44164297 2.466671169 6.573489307999999
-3.4539539369999996 2.468050458 6.572295725000001
-3.429020569 2.464763448 6.5708033740000005
-3.4717988220000002 2.4789685379999997 6.561353058
-3.433183581 2.464505658 6.574483216
-3.461361676 2.46097371 6.5886214380000006
-3.468451276 2.453342639 6.601061672
-3.376397491 2.416295931 6.530021876
-3.438539058 2.597791515 6.368181854
-3.394531086 2.5765096769999998 6.382703036
-3.2683961089999998 2.590431087 5.6816373019999995
-3.332522884 2.400943451 5.826339498
-3.319752216 2.32446529 5.814108625
-3.26150693 2.375781536 5.337447673
-3.2783221449999997 2.300682664 5.346531793
-3.3312488350000002 2.6166500520000002 5.931921303
-3.238232434 2.4843953549999997 5.300317705
-3.313507885 2.44443547 6.367827952000001
-3.320781514 2.5288669390000003 6.319616735
-3.3356860279999996 2.5247292590000003 6.390716136000001
-3.245269507 2.437036298 5.318294466
-3.32855247 2.3718371990000002 5.790857226
-3.294625878 2.494346723 5.724758655
-3.2112248240000003 2.264718711 5.054117367
-3.2285586 2.447967418 5.262340978
-3.161913157 2.536510862 5.092040077
-3.143653274 2.539810911 5.037274212
-3.262536973 2.31814906 5.281619728
-3.2649662349999997 2.2653888909999997 5.232970789
-3.2838996500000004 2.062482573 5.415102467
-3.210728616 2.3876277729999997 5.164584145
-3.2576628029999997 1.7496731129999998 5.484690517
-3.25252898 1.8002806230000001 5.490016192000001
-3.258069605 1.519967802 5.496696383
-3.2685808839999995 1.47853829 5.5574022229999995
-3.260373324 1.533773355 5.562341213
-3.2836187629999998 2.586834691 5.756623298
-3.32370773 2.4749597530000003 5.820741132
-3.3273521809999997 2.552920394 5.96103631
-3.307011351 1.9061615689999998 5.797645822
-3.3071078359999997 1.81973204 5.686120316
-3.31902653 1.7832009119999999 5.7540040459999995
-3.280344233 2.068592422 5.5540286000000005
-3.2805293800000004 1.992359199 5.3254999220000006
-3.284033388 2.042966522 5.342084169
-3.311004117 1.76203493 5.6858621540000005
-3.305240721 1.714946702 5.688896403
-3.319470957 1.7394382510000002 5.7082436979999995
-3.266299516 1.94306653 5.329537764
-3.1984541569999996 2.284866199 5.036411434000001
-3.20212841 2.5981782 5.227640271
-3.2589811830000004 2.178392187 5.161879212
-3.273477405 2.307011746 5.537341908
-3.2665736969999997 2.456268668 5.417498946
-3.272551671 2.4466654290000003 5.494070798
-3.2693367449999995 2.498149313 5.455281213
-3.2001730050000003 2.483377047 5.191965029
-3.196639195 2.437693812 5.154776573
-3.2682105900000002 2.570386603 5.604737625
-3.2165065409999998 2.456964739 5.226197839
-3.265247867 2.60744635 5.551997572
-3.261299431 2.647651173 5.622447282
-3.257818148 2.426376007 5.370562896
-3.308530152 2.5203723460000003 6.118545681
-3.3153299240000003 2.603888698 6.142232567
-3.2688774169999997 2.566712908 5.477663130000001
-3.2743144779999995 2.5190059099999997 5.543641001
-3.2180026170000002 2.496679872 5.248448253
-3.2009210439999998 2.539140545 5.212044716
-3.215817362 2.559803799 5.259760469
-3.276344016 2.502738312 5.493930355
-3.189757839 2.606660128 5.18761389
-3.1901575619999996 2.570193261 5.188670009
-3.3331450069999997 2.3045884450000003 6.616842747
-3.31646353 2.2634038700000003 6.695672869999999
-3.2907962800000004 1.818971522 5.607846007
-3.2979443669999995 1.8981309610000001 5.656023324
-3.290070221 1.879685 5.579528213
-3.251869977 2.478091978 5.355878174
-3.2709885389999998 2.20146589 5.221456289000001
-3.282625601 2.013112605 5.513734743
-3.287284821 1.9864037630000002 5.556930974
-3.2314695419999997 1.7443882300000002 5.312201008
-3.234084323 1.78352315 5.358346179
-3.2545585189999997 2.049411647 5.1363520320000005
-3.2533291729999996 1.8487481399999999 5.463280156
-3.284114599 2.030579001 5.471331626
-3.223639727 1.622033305 5.194367096
-3.2463733109999997 1.9088428469999998 5.240274221
-3.257566318 1.933050901 5.279830098
-3.2731663440000003 2.041716129 5.2156105639999994
-3.2764997329999996 2.069726773 5.243323743
-3.2235655930000005 1.802703924 5.232993512999999
-3.2173063609999994 1.757252775 5.21989651
-3.222765774 1.754223555 5.259731039
-3.221980482 1.703371108 5.219048262
-3.2237436619999995 1.847704127 5.131064355
-3.232003003 1.856843196 5.252666026
-3.221528605 1.843927242 5.103873834
-3.242477402 1.820183173 5.448210984
-3.2640185209999997 1.973913051 5.237752944
-3.2704256469999997 1.9725209099999998 5.289232731
-3.2767888160000003 2.025603317 5.273354426
-3.278774023 2.088456415 5.288358405
-3.284788877 2.170567773 5.380056798
-3.2810032369999997 2.2581445049999997 5.415997654
-3.239173442 1.836850494 5.394354463
-3.2484106720000003 1.721417718 5.421615764
-3.240165859 1.734540053 5.364669487
-3.241632506 1.682540402 5.371785164
-3.2953225080000004 1.038488746 6.078774855
-3.299811482 1.085796207 6.1276208610000005
-3.293174133 1.121476572 6.087324768
-3.256670013 1.562119089 5.530798808
-3.2789517189999997 1.699465513 5.633415654
-3.2974038269999997 1.763414219 5.650909618
-3.244514018 1.779101789 5.421876162
-3.2860185950000003 2.105819806 5.357085541
-3.230454773 1.6559863460000002 5.264807865
-3.416116536 2.432602085 6.6082105040000005
-3.4165754909999997 2.435876243 6.6037341949999995
-3.394367918 2.4075433609999997 6.601511687
-3.291596472 1.9392767920000002 5.599007383
-3.291011229 2.027369291 5.694401264
-3.286211193 2.147958241 5.654092506
-3.282736987 2.213840559 5.629262328
-3.2794851809999996 2.245460451 5.593249202
-3.338145092 1.574893482 6.658212840999999
-0.119038776 -0.6233694032 6.728119403000001
0.09632734582000001 -0.6152356043 6.812273711
-0.009289024456 -0.5002797580999999 6.827528774999999
-3.236773238 1.691576466 5.3191185
-3.243151307 1.623270847 5.3320921960000005
-3.304344788 1.7530633140000003 5.671711639000001
-3.261862323 1.719690301 5.532357842
-3.27485539 2.244996466 5.506007373
-3.2733663920000002 2.2275300700000003 5.548414588
-3.287336975 2.21921578 5.695898086
-3.2739147539999998 2.265620977 5.559007823
-3.3418931069999998 2.287276648 6.777949631
-3.368064016 2.2976534440000003 6.7743770780000006
-3.3591378480000005 2.292200737 6.779848784
2.6885578409999997 1.5986502169999999 8.59631151
-3.3098928630000004 2.192468382 6.857518852
-3.3370338380000004 2.199532278 6.886209548
-3.3258933570000004 2.239866182 6.817734987
-3.407064453 1.239848323 7.0220485329999995
-3.4010645 1.179998647 6.99500218
-3.354145586 2.345695533 6.621365249
-3.268529102 1.557672024 5.622119829000001
-3.2706625759999994 1.5984697270000001 5.65212816
-3.253380954 1.1651103379999999 5.454805866
-3.2673072070000004 1.164272428 5.493644625
-3.2604180279999997 1.214351319 5.467303097
-3.2950114459999997 2.195188217 5.786290765
-3.368345648 2.375098504 6.620100141
-3.324752674 2.339765988 6.544878334
-3.478073329 2.231848426 6.834363937
-3.4819174559999997 2.206248231 6.857535243
-3.4533467140000003 2.221445926 6.865716726
-3.51081416 2.191566117 6.853243708999999
-3.476976976 2.252292447 6.807695329
-3.3615008 2.273909375 6.822055578
-3.350071609 2.2840024899999998 6.793682277
-3.355152905 2.290267311 6.7884132269999995
-3.4105610100000003 2.25682985 6.828412414
-3.367819637 2.237700485 6.8584680559999995
-3.4401617939999998 2.449217811 6.615897267999999
-3.451702744 2.42199339 6.638673692999999
-3.348574787 2.3658689109999997 6.587126851
-3.412427753 2.361769788 6.6701829429999995
-3.4255020320000003 2.4165408690000003 6.621639430999999
-3.419043124 2.425241657 6.616966425999999
-3.439998627 2.401807159 6.650403142
-3.432139009 2.380860411 6.661935151
-3.4743100399999998 2.389045805 6.6653274
-3.4290648999999997 2.385475114 6.661541015
-3.428746387 2.384933643 6.657657027
-3.4275095909999997 2.402619272 6.639353185999999
-3.402812779 1.133451704 6.985393912
-3.395375982 1.145478338 6.948456168
-3.3919088540000004 1.0899211279999999 6.952484697
-3.4006346020000002 1.099962648 7.00218454
-3.23246941 1.35221323 5.298947543000001
-3.228684515 1.392779034 5.293614045
-3.4673769030000003 2.349833399 6.691279261999999
-3.329952434 1.605830155 6.220171973
-3.3166412259999998 1.7315365369999998 6.2276706100000006
-3.351819515 2.165489085 6.921624392
-3.396086767 1.95417814 7.082932442000001
-3.382219747 1.9947567950000002 7.03856349
-3.3979460599999998 2.180544846 6.895852834
-3.3968571570000003 2.17617508 6.892559677
-3.4258056430000003 2.201259695 6.882726401
-3.3941015599999997 2.1813569590000004 6.8960525100000005
-3.390716016 2.185430378 6.8917721510000005
-3.3873312179999995 2.1895164620000003 6.8874932829999995
-3.3842641860000002 2.194131352 6.887101381999999
-3.376716003 2.198501118 6.879140437
-3.380101174 2.194401994 6.88341558
-3.3844050020000003 2.172075957 6.902115047
-3.379627317 1.18041113 6.813362241
-3.381153196 1.143390127 6.838315725000001
-3.31136696 1.321263611 6.089918315
-3.298522532 1.930975541 5.998136476
-3.288588673 2.077241987 6.141986698
-3.3583749089999997 1.6590800140000002 6.860060245000001
-3.3455234020000004 1.379656699 6.509430707
-3.312737122 1.356028765 5.897660181
-3.321552277 1.400887035 5.962436274
-3.3533379439999997 1.719716191 6.903839111
-3.3308193090000002 1.42626809 6.424429268
-3.322033957 1.3764985840000001 6.380270422000001
-3.335241601 1.362009905 6.460919230999999
-3.293433413 2.095713653 5.927798897
-3.3751975740000004 1.390742417 6.880095601
-3.3290188759999997 1.505040843 6.302030385
-3.301781416 2.161260881 6.750935316
-3.3154264090000005 1.722229645 6.009870023
-3.320611641 1.7363317310000002 5.820176378
-3.2656256109999995 1.513058599 5.592688173
-3.288166597 1.6360064970000001 5.68135269
-3.3212039620000002 1.720064133 5.742684007
-3.262395784 1.3986312779999999 5.4534543310000005
-3.3551748839999997 1.51492767 6.764808296999999
-3.2808922230000004 1.430341415 5.602957308
-3.273655474 1.41297821 5.534228682999999
-3.277507052 1.362589933 5.580785498
-3.267603368 0.9984127246000001 5.863432214
-3.269514441 1.361275092 5.509878695
-3.2642625270000005 1.453827601 5.497426167
-3.239158541 1.54952528 5.322756618
-3.3075001090000002 1.470984612 5.794411153
-3.301292658 1.490062289 5.7524029169999995
-3.34607847 1.6082793469999999 6.752554327
-3.3312931660000005 1.499149948 6.2149807809999995
-3.249647468 1.560056582 5.4041244090000005
-3.316545114 1.818455942 5.8728404339999996
-3.302781656 1.264559105 5.92315644
-3.29618156 1.223477628 5.885569751
-3.295107558 1.216594223 5.970309674999999
-3.3408414570000002 1.43353818 6.510286033
-3.324263543 1.449728478 6.357933581
-3.315996751 1.346502826 6.1537832020000005
-3.3230267469999997 1.395769604 6.166275218
-3.3554639669999995 1.255329605 6.741133332
-3.364368156 1.2631540190000001 6.803090125
-3.3864792439999998 1.2812906880000001 6.9223068649999995
-3.3783532679999997 1.589369215 6.90798983
-3.3518787469999998 1.288921759 6.613205373
-3.335863724 1.55919306 6.058799103
-3.358463943 1.092241332 6.532441825
-3.3654194329999996 1.0571023449999999 6.576618552
-3.116519749 0.6966117769 5.423551053000001
-3.298144415 1.191947889 6.128925085
-3.3111300320000003 1.3083474709999998 6.215286255
-3.3184412869999997 1.363054011 6.211053953
-3.241099417 1.136558224 5.411956459000001
-3.244106844 1.1888155710000001 5.412409082
-3.3238116650000005 1.421833783 6.230340152999999
-3.321981803 1.455786917 6.289530545
-3.2523140309999996 1.423445065 5.391038581999999
-3.318092972 1.367604267 6.031114236
-3.272417933 1.140824985 5.532360822
-3.318115324 1.411934011 6.315875053
-3.3046334980000003 1.274935808 6.148728356
-3.310626 1.312704384 5.955670029
-3.321781754 0.8362912573 6.09280318
-3.3180482689999997 0.8917969652000001 6.105312333
-3.3131074160000002 0.8660034276999999 6.037569419
-3.2854408029999997 1.00916326 6.007938086999999
-3.245936334 1.516551897 5.354687572
-3.2479215409999997 1.482792106 5.375167727
-3.239447251 1.433563977 5.334882811
-3.245321661 1.0298264209999999 5.462330952
-3.24912183 1.011522207 5.532325432
-3.265381232 1.3343987990000001 5.462151766
-3.280144185 1.2779392299999999 5.588367581
-3.2712996010000004 1.309842803 5.520881712
-3.267966583 1.2570439839999998 5.516546965
-3.2302543519999998 1.710125804 5.273228139
-3.2466325910000005 1.6762498769999998 5.416097864999999
-3.260321915 1.469399035 5.435800552
-3.245914355 1.6403503720000001 5.393254012
-3.2858997580000002 1.084262226 6.021362543
-3.2619066539999997 1.278867293 5.466176197
-3.256158531 1.301219128 5.4196961219999995
-3.248040378 1.247621235 5.403906479
-3.312789276 1.033745054 6.20155409
-3.305604309 1.031347457 6.150666997
-3.269314393 1.053583249 5.672282353
-3.2590035349999997 1.0408476930000001 5.603158101
-3.2556921240000003 0.9855095297 5.686856061
-3.2848037779999997 1.129494328 5.971315876
-3.242314234 0.9527809918000001 5.485260858999999
-3.2408919190000005 0.9504349902 5.39005585
-3.2246101649999996 0.994339399 5.285637081
-3.214446828 1.0313862 5.249426141
-3.22676599 1.054988336 5.312883109
-3.149142489 0.7230755873 5.401270092
-3.16066891 0.7454145233999999 5.377294123
-3.181898221 0.7770602591 5.347251147
-3.1913135199999996 0.7560748141 5.381290242
-3.2160617410000003 0.7143488618999999 5.484714359
-3.2182917 0.7157410029 5.444484204
-3.231877089 1.103391498 5.369499698
-3.2346177849999997 0.8107426576000001 5.449861661
-3.3036481589999998 0.7482504006 5.947123468
-3.2310474659999997 1.156460866 5.370152742
-3.3103670920000003 0.9652459994000001 6.123610586
-3.2359514390000004 0.7781172171 5.685444921
-3.323907778 0.7804761641 6.128301099
-3.3028852189999998 0.7666835561 6.012368947
-3.3130187540000002 0.8063985966 6.0458734629999995
-3.189802542 0.7187315729 5.426463857
-3.225862235 0.7808371447 5.402925238
-3.266936913 0.8808272891 5.863909423
-3.2770406449999996 0.8288535289000001 5.882279202
-3.290826082 0.8252829313000001 5.929476023
-3.2513137910000003 0.8738664910000001 5.746589974
-3.231151029 0.7552111521 5.453884602
-3.239728883 0.8837534115 5.638547614
-3.223676607 0.7719814777 5.551796779
-3.2402548939999996 0.8773597889 5.519836769
-3.273736686 0.8207068779 5.8517973869999995
-3.255788237 0.9459749795 5.772059038
-3.18309851 0.7890482432999999 5.321574211
-3.251936287 0.9245383553 5.707601830000001
-3.298692778 1.133413054 6.144997105000001
-3.2748851930000002 0.7929798215999999 5.831650645
-3.2374918459999997 0.9570606053 5.297745764
-3.244965896 0.9622167796 5.575392023
-3.240269423 1.093014795 5.418086052
-3.347552568 0.8333909325 6.290375441
-3.306989372 1.088206656 6.178511679
-3.278314695 1.0465065020000002 5.951509625
-3.3910937609999996 1.115843467 6.909095496000001
-3.309315071 0.834718626 6.014333293
-3.302507475 0.8478151634 5.9851665050000005
-3.288966417 1.154334005 5.640713871
-3.331145272 0.8474026807 6.150276586
-3.3432859930000003 0.9696802124 6.351465732
-3.3469971270000003 1.013172138 6.400900333999999
-3.333670646 1.0447921230000001 6.325847656
-3.3290263270000002 1.165612973 6.365210563
-3.3259820189999996 1.143054944 6.320771575
-3.348241746 0.8492588997 6.471439450999999
-3.2766181980000004 1.110829134 5.580030382
-3.2974559809999997 1.248059515 5.810312554
-3.295100108 1.169699244 5.773578584
-3.218750656 0.7438032421999999 5.416629463
-3.2938260589999997 1.217135601 5.711287260000001
-3.312344849 0.7161663845 5.934941396
-3.3059816810000004 0.8067208342000001 5.9866193679999995
-3.3799309280000003 1.014886517 6.872241198999999
-3.3691234889999997 1.028756518 6.608156115
-3.3571455629999996 0.8818971924 6.510014087
-3.358367831 0.9137620218000001 6.481566280000001
-3.353026882 0.8996600284999999 6.436143816
-3.342359886 0.9408704005 6.295768917
-3.33504118 0.9827896952999999 6.294513493999999
-3.3499971029999998 0.8499421179000001 6.34765923
-3.348715603 0.8501483127 6.399540602999999
-3.346952796 0.8992088959 6.321119517
-3.3489301800000004 0.7936242967999999 6.323699653
-3.344404325 0.8006495424000001 6.362945586
-3.391923383 1.1593869890000001 6.9029666480000005
-3.401990235 1.136957854 7.032799721000001
-3.3751677719999997 1.034118887 6.702571362
-3.34450081 1.075741742 6.4083360140000005
-3.35790813 1.031901781 6.457190961
-3.354812041 1.088490244 6.477458029999999
-3.367930651 0.8703989908 6.84152022
-3.380931169 0.9842720814 7.01591149
-3.380900994 0.9894926101 6.6843986509999995
-3.323122859 1.284229662 6.389033048999999
-3.328922763 1.32640684 6.406603009
-3.377516568 0.9686361067 6.8589523429999995
-3.3837534490000003 1.016459148 6.9394633169999995
-3.4077908839999997 1.154334005 7.0737458769999995
-3.352523223 1.143957302 6.517747045
-3.389620036 1.048788056 6.9982521239999995
-3.395294026 1.1824863959999998 6.951284408999999
-3.3629678189999996 1.0405511600000001 6.519342959
-3.433739021 1.317847613 7.140539587
-3.421768546 1.289849915 7.10156858
-3.3709827810000004 0.9898922406 6.569577754
-3.376368061 1.0208418590000001 7.1666173639999995
-3.3423822370000003 1.1538441289999999 6.43749088
-3.3341601489999997 1.114979852 6.359882653
-3.3247966320000004 1.103881281 6.3024096190000005
-3.3562712369999996 0.9894539601999999 6.443300842999999
-3.3600345249999997 0.9760738349999999 6.492679566
-3.316959739 1.080524083 6.246519089
-3.3404044809999998 1.234640647 6.458291411
-3.367271274 1.307767443 6.832508743
-3.3307597039999997 1.289901417 6.4354442060000006
-3.343656287 1.299659442 6.488836556999999
-3.379093856 1.333032455 6.879841536000001
-3.316041082 1.145813521 6.273370980999999
-3.3956643189999998 1.222768705 6.94963336
-3.441398591 1.6826821490000001 7.276447117
-3.430975974 1.7341403290000001 7.2541885079999995
-3.3495675769999997 1.080897823 7.491229475
-3.306055814 1.10500278 7.563150674000001
-3.353760391 1.1475279 7.533421367
-3.38430889 1.172934752 7.475588471
-3.354493529 1.184407063 6.623554974999999
-3.3667679880000003 1.1905428949999999 6.757201254
-3.3030636609999995 1.294799801 5.883057043
-3.349137679 1.244514622 6.663450599
-3.3571753650000002 1.2137067499999998 6.710923463
-3.338027 1.545477752 6.156175211
-3.3366709949999995 1.50850825 6.125562266
-3.238388523 0.9907688014 5.3328331559999995
-3.23581025 1.0407703000000001 5.389846861
-3.2437957820000003 1.066860277 5.437380075
-3.6071863029999998 1.551536191 7.6677784319999995
-3.6145862190000004 1.56923458 7.660727948
-3.5811558370000003 1.5686802569999998 7.639616728
-3.3916797489999997 1.48591157 6.965138018
-3.384190425 1.118408702 7.307833432999999
-3.5076137629999997 1.7321294170000001 7.419604807999999
-3.483650833 1.678505726 7.409093529000001
-3.5093106329999997 1.692891307 7.456807792
-3.3900499340000003 1.587113366 6.987058371000001
-3.400123864 1.5152757060000002 7.008190453
-3.4001905470000002 1.577252336 7.06731379
-3.393886611 1.152297296 7.433841377
-3.384412453 1.10876672 7.428718358
-3.4099608660000005 1.792172529 7.156161964000001
-3.4311685709999997 1.826177165 7.193543762
-3.475702554 1.622703671 7.405547053
-3.4204650670000003 1.510493364 7.186543196000001
-3.426124156 1.525136828 7.235856354
-3.420590982 1.250676252 7.083205879
-3.4115169200000004 1.292067021 7.050286233
-3.410568833 1.193507668 7.355011999999999
-3.3813975750000003 1.009782031 7.076086849
-3.42775397 1.280246582 7.178141922
-3.439716995 1.357833389 7.17035085
-3.368271515 0.9869403206 7.303515077
-3.4198127690000004 1.729809307 7.211868465
-3.3869974320000003 1.3713424090000002 6.9535709919999995
-3.479117528 1.541881356 7.412536442
-3.475332633 1.5824213619999998 7.407201827
-3.469413519 1.582189277 7.371848077
-3.537392244 1.607351191 7.570047677
-3.5173255950000004 1.617444307 7.530421019
-3.467517346 1.507103257 7.33064115
-3.550059348 1.916950755 7.175218313999999
-3.4106645730000005 1.9024621700000002 7.108876109
-3.37606445 1.644862071 6.948275864
-3.487858176 1.8891206010000001 7.176183163999999
-3.4540429710000002 1.8506689 7.224143296
-3.42511721 1.7736362289999998 7.213307917
-3.460391611 1.447833609 7.279694824999999
-3.254358843 1.300510205 7.942672819
-3.4155908970000004 1.61851421 7.195817678999999
-3.3935163169999996 1.449419092 6.9939829410000005
-3.489125147 1.866498217 7.215095311
-3.4041237090000003 1.754932478 7.1179814640000005
-3.51126641 1.929454505 7.152722776000001
-3.346278891 2.180751041 6.908001751
-3.33904922 2.185636573 6.903919578000001
-3.3422637730000004 2.183741704 6.895952672
-3.336122632 2.192997001 6.895166636
-3.435657918 1.945490018 7.104830444
-3.5266667600000003 1.970858127 7.125770301000001
-3.525577858 1.966514066 7.12248385
-3.55085209 1.9902065399999997 7.125099003
-3.5562224689999997 1.9523605699999997 7.149849832000001
-3.522821516 1.9716702400000001 7.125969976
-3.480013832 1.962389238 7.114811242000001
-3.538518399 1.9441751760000001 7.152433693
-3.532984853 1.959424466 7.138811797
-3.5291403530000003 1.960236579 7.1390107270000005
-3.558688983 1.869746484 7.300645113
-3.567185625 1.867000945 7.320258766
-3.5806972530000003 1.8803939219999999 7.293379307
-3.579526022 1.863468997 7.339673489
-3.537140414 1.862373203 7.3034241799999995
-3.54680717 1.876565441 7.2767511009999994
-3.4272130579999995 1.264404412 7.2321943939999995
-3.422442824 1.2364195660000001 7.176703215000001
-3.441227973 1.369885821 7.614915817999999
-3.4666433929999996 1.396336779 7.609167695000001
-3.45576182 1.372670196 7.573489845
-3.470109776 1.404805668 7.563862205
-3.4675471479999995 1.43035436 7.333350927
-3.384664655 1.771019585 7.065521926
-3.3918425439999997 1.726393215 7.07513392
-3.5364519800000003 1.7247691749999998 7.462117821
-3.5403329880000003 1.7190329729999998 7.482526451
-3.540466353 1.746566594 7.450789213
-3.527355567 1.721495017 7.455343008
-3.364330903 0.9777109139 7.265263796
-3.268618509 1.057862863 7.576748729
-3.243306652 1.014306489 7.576901466
-3.3823754640000003 1.102953218 7.258318364999999
-3.379301354 1.0605440480000001 7.216648757000001
-3.375086561 1.0680978190000001 7.259780169000001
-3.383679315 1.075561251 7.162396610000001
-3.383241966 1.045114361 7.122825831
-3.397879377 1.298370399 6.994724274
-3.4265685830000003 1.265873853 7.136400789
-3.366656974 0.8926992305000001 7.11350739
-3.388908878 1.035150141 7.040062547000001
-3.3973384650000003 1.403942052 7.0199303330000005
-3.410346061 1.4683936720000001 7.085616887
-3.394679353 1.08222561 7.0370242
-3.398316354 1.353605371 7.010916620000001
-3.370079026 1.703873836 6.980404258
-3.3589750529999995 1.786333323 6.973813474
-3.4760065380000005 2.109222859 6.983109563999999
-3.498473391 2.098343335 6.994757056000001
-3.4838359800000003 2.0855303849999998 6.997729093
-3.476606309 2.09042877 6.993647664999999
-3.469665721 2.075991593 6.99622035
-3.473220766 2.094502002 6.989374757
-3.381908685 1.729138941 7.027730345999999
-3.4702952949999997 2.101875283 6.980618089
-3.467361629 2.109222859 6.971860677
-3.4507244829999997 2.110305615 6.957121937999999
-3.5448372360000002 1.932741515 7.165472209
-3.443790972 1.394570805 7.176867127
-3.4095536920000002 1.5635756779999999 7.148159295000001
-3.41754593 1.564877667 7.219067961
-3.443509713 1.991250552 7.069931178999999
-3.515873849 2.006822079 7.081791759
-3.47936973 2.035670541 7.036916912000001
-3.193157539 1.267021149 7.908478379
-3.210602328 1.217612531 8.057408035
-3.182594851 1.243741252 8.03213641
-3.2321438190000005 1.2497738939999998 8.031251281
-3.523547947 2.079575136 7.011267542999999
-3.515088186 2.077383734 7.01226145
-3.4990735350000004 2.079562098 7.005292176999999
-3.5444669429999998 2.061064541 7.024094462
-3.509376943 2.070036158 7.00976029
-3.4918438640000002 2.08444763 7.001207769
-3.4325312820000002 2.07898207 6.966948509
-3.4257687629999998 2.037565596 7.005142421
-3.468598798 2.1162996069999997 6.966786087
-3.4729026259999998 2.118761651 6.962112337
-3.4898288550000003 2.123131417 6.960123777000001
-3.497940302 2.1544935179999998 6.9112569090000004
-3.5336669530000004 2.1218294280000003 6.956736743
-3.4764289859999997 2.1421961489999997 6.934648752
-3.48456949 2.14384608 6.929770857
-3.44440639 2.14654021 6.920715421
-3.489332646 2.149569429 6.920613348
-3.467502818 2.136743627 6.940120459
-3.4871768210000003 2.1607453 6.91126436
-3.479177132 2.161828056 6.9077841939999995
-3.456109762 2.166700736 6.908984481999999
-3.436568752 2.170219831 6.906094402
-3.4707467999999997 2.129937522 6.952762604
-3.421650082 2.176742256 6.902420521
-3.410575539 2.182439715 6.898541003
-3.402886912 2.184076793 6.898941845
2.727966197 1.7043251539999997 8.493151516
-3.3442638810000003 2.219422162 6.866908818000001
-3.350856528 2.238241956 6.839841604000001
-3.343944997 2.218893543 6.863029300999999
-3.337352723 2.200086601 6.890095025
-3.364263847 2.194389142 6.888696551
-3.347656503 2.190547809 6.894566118999999
-3.340737894 2.195987478 6.894373149
-3.3448562029999995 2.250204235 6.830693036
-3.3419303599999997 2.25757733 6.821936369
-3.344078362 2.271202393 6.807909906
-3.4444577990000003 2.211069129 6.891799718
-3.4656584259999996 2.198037133 6.887906045
-3.485621512 2.202703245 6.865697354
-3.4882366659999997 2.194801532 6.870573759
-3.493629023 2.1768195550000002 6.892560422000001
-3.5273920739999998 2.103538066 6.987684965000001
-3.52601409 2.093741484 7.001124322000001
-3.3534344289999996 2.041870914 6.990515441
-3.3771384510000004 2.0380681380000003 6.997083127000001
-3.517429158 1.989665069 7.103986293
-3.4545689820000005 1.529455092 7.300689816
-3.4875914450000005 1.4944836499999998 7.458294183
-3.4755323079999996 1.431656256 7.404256612
-3.477524966 1.444933284 7.466010003999999
-3.4754958 1.726431958 7.367216796000001
-3.4377835689999996 1.552593149 7.270936668
-3.5962749269999996 1.6046313570000001 7.629396021
-3.5694748159999996 1.6179598869999998 7.601824403
-3.4887403249999998 1.441788021 7.616983353999999
-3.49563621 1.438733004 7.684591413
-3.5091325639999997 1.42969694 7.748517394
-3.573193029 1.490461826 7.726871967
-3.5904008899999997 1.525111031 7.684782892
-3.467102349 1.399430446 7.76013881
-3.4621171649999996 1.403349079 7.648406178
-3.497799486 1.474761404 7.579769194
-3.480806574 1.480394509 7.385087758
-3.597030416 1.5389938840000001 7.6783224940000006
-3.605348617 1.5384525059999998 7.6856933530000004
-3.616423532 1.532729156 7.689570636
-3.618430719 1.5436343849999998 7.683905959
-3.573682159 1.6822440550000002 7.576599717000001
-3.5681188109999997 1.652815379 7.589114457
-3.546681628 1.6530860219999999 7.562923431
-3.6176752299999997 1.634060033 7.611603290000001
-3.591652587 1.626415923 7.606812567
-3.364019468 1.360643469 7.793854176999999
-3.5215772690000002 1.458596997 7.715585083
-3.5208366810000005 1.449857373 7.736787945
-3.5447038710000003 1.46867726 7.7322267
-3.5356070849999996 1.465403102 7.7254526320000005
-3.201750666 1.249683648 7.834472506999999
-3.23170647 1.291332301 7.8541316089999995
-3.446331993 1.324370131 7.433526218
-3.4695543349999998 1.4163038689999998 7.5065121050000005
-3.4595616160000002 1.379476208 7.309193164
-3.397582844 1.173566375 7.4186280369999995
-3.3939313140000005 1.14501426 7.38703087
-3.444517031 1.3089017939999998 7.384007424
-3.428398445 1.278635301 7.429392636
-3.411983326 1.220641751 7.4268452819999995
-3.378056735 1.342816185 7.671648264
-3.544844314 1.4713970939999998 7.723865657999999
-3.5499259829999996 1.477661729 7.718592882
-3.5542294379999997 1.480123866 7.713913917999999
-3.549466655 1.4744005169999999 7.723071426
-3.540229052 1.4683936720000001 7.724657655
-3.5076219589999997 1.4643589970000002 7.656138390000001
-3.4827914090000003 1.446467172 7.5610183179999995
-3.451879695 1.403026842 7.685155421000001
-3.404768556 1.247801632 7.487417758
-3.372041881 1.213681046 7.538669555999999
-3.4072648730000004 1.353502274 7.6478548349999995
-3.43394652 1.382080093 7.657644153
-3.488029167 1.814936846 7.325978577
-3.488169611 1.817669533 7.3176145550000005
-3.502517939 1.8250299620000001 7.3313675819999995
-3.491414338 1.8108636139999998 7.330257446000001
-3.4718211739999996 1.7746547240000001 7.332906872000001
-3.4326057879999996 1.34272594 7.559615374000001
-3.386583179 1.119994186 7.347269356
-3.294351697 1.324795559 7.9161062840000005
-3.276507184 1.31389033 7.9270467159999995
-3.290189058 1.325079147 7.912425697
-3.375182673 1.3180925510000001 7.639458776
-3.3767826860000003 1.05350595 7.4290588500000005
-3.396287188 1.319819875 7.573732733999999
-3.376293927 1.295276731 7.598704844999999
-3.404672071 1.334231254 7.598944008
-3.3812791109999996 1.363169961 7.728332281
-3.3149003980000002 1.338008139 7.793033123
-3.411375731 1.33589413 7.5662821529999995
-3.41209434 1.324769761 7.547845691000001
-3.39172408 1.284719538 7.551089674
-3.264484927 1.246306393 7.738166302000001
-3.2474771139999996 1.254143659 7.766359299
-3.2232027500000004 1.19997859 7.751963288
-3.3291671430000003 1.357575599 7.832990586999999
-3.306974098 1.326716226 7.918801904
-3.3011224120000002 1.316623017 7.92466104
-3.31883356 1.3000203300000002 7.945462316
-3.315900266 1.3321687469999999 7.913324236999999
-3.3366709949999995 1.335726492 7.911137491000001
-3.296122327 1.347727422 7.856976986
-3.217498958 1.2396679259999999 7.790742815
-3.244462237 1.273724064 7.783807069
-3.1892318279999996 1.183569245 7.784906029999999
-3.339092806 1.260898262 7.642385364
-3.376767784 1.367668714 7.855601609
-3.392434865 1.369885821 7.838077098
-3.4144721929999995 1.375596225 7.851427048
-3.360330686 1.3616489250000001 7.873722165999999
-3.379493952 1.367436722 7.831504941
-3.3428046849999995 1.351285074 7.888549566
-3.329122812 1.340083405 7.903176546
-3.310181573 1.349596493 7.887450606
-3.335715458 1.3588904400000001 7.876110077
-3.314174339 1.351542957 7.878890634
-3.3190783109999997 1.359998994 7.861370593
-3.4088723360000004 1.375905611 7.819962501999999
-3.3048335460000002 1.1919994839999999 7.650780678
-3.269144148 1.2912678530000001 7.954709977
-3.2530181110000003 1.285776496 7.976718247
-3.28793712 1.279009134 7.978800683999999
-3.2265804709999997 1.148842741 7.714962214
-3.274218366 1.2975324879999999 7.949441671
-3.282366693 1.299182512 7.944560795999999
-3.309870511 1.3490809129999999 7.8835681079999995
-3.3106409009999997 1.352883503 7.882976532
-3.3052481709999997 1.346064545 7.884360849999999
-3.306026012 1.349892933 7.8837692740000005
-3.291744739 1.307896338 7.934612781
-3.29618901 1.3378791509999999 7.898195088
-3.3209744839999997 1.338433474 7.9080574210000005
-3.244351223 1.050747465 7.603627443
-3.145927563 1.2252049520000001 8.021757752
-3.14483121 1.220848039 8.018477261
-3.153468668 1.24563612 8.006350696
-3.1420826909999997 1.226029918 8.021958917
-3.158024326 1.162016578 7.8143619
-3.184424341 1.20994281 7.817503065
-3.1783353540000006 1.258758456 7.966626436
-3.183446452 1.260124799 7.981967925999999
-3.184217215 1.263927482 7.981375605
2.075645328 1.296114549 8.835600317
-3.18390578 1.2633861039999998 7.977491617
-3.1065640969999997 1.1303322390000001 7.882745564
-3.130082786 1.106485166 7.812413573000001
-3.153016418 1.2175738809999999 8.034206927
-3.12129762 1.200210582 7.959498465
-3.175016865 1.060092915 7.703619450000001
-3.1323794279999997 1.145078707 7.8546762470000004
-3.150935099 1.241317857 7.9752773050000005
-3.132490441 1.224392839 7.999058068000001
-3.130067885 1.180681773 7.8977361319999995
-3.1433127819999997 1.233106665 8.016897738
-3.1480755659999997 1.238830015 8.007736504
-3.206602484 1.265280973 8.019211888
-3.148534894 1.242091227 8.003258705
-3.1528387220000003 1.2445532719999999 7.998584956
-3.1745206560000003 1.2546593320000001 7.987438887
-3.179142997 1.2576627550000001 7.986646891
-3.161757439 1.250018831 7.993112503999999
-3.170676157 1.255471446 7.987638563000001
-3.173431754 1.250302419 7.984147966000001
-3.3117450770000003 0.9464519097999999 7.4651971459999995
-3.323826566 0.9820936248 7.47519508
-3.5554893310000004 1.7004838210000002 7.539670914
-3.5916969180000002 1.715745963 7.554528117
-3.5687703639999997 1.844919659 7.363057136999999
-3.5372145469999996 1.827749796 7.368020712999999
-3.544266149 1.849818043 7.336473465
-3.586000577 1.6588093710000003 7.598779351
-3.61431241 1.68281123 7.581178099
-3.4475687890000004 1.7651287840000003 7.292369753
-3.455376253 1.721585169 7.309749722
-3.544674441 1.642206684 7.568591833
-3.5454515370000004 1.646009274 7.567998767000001
-3.555926308 1.6343049710000002 7.584716380000001
-3.570244834 1.621788368 7.601231337
-3.545910865 1.649283431 7.563518733
-3.573000059 1.6166193410000003 7.597738504
-3.629401326 1.7236864189999999 7.550352067
-3.509118035 1.625642553 7.4940800670000005
-3.527377918 1.7661599439999998 7.429198921
-3.522133082 1.762086526 7.422225177
-3.529385105 1.777052321 7.423534244000001
-3.5315409300000002 1.7658762630000002 7.432881743
-3.5219699139999996 1.665112749 7.503482699
-3.50485146 1.7868746070000001 7.376341522000001
-3.542007133 1.803760976 7.402846962
-3.593207896 1.777864248 7.4859760699999995
-3.5950448359999996 1.7661599439999998 7.491438836
-3.569481894 1.7617901790000001 7.482174039
-3.594126925 1.7844125629999998 7.477021217
-3.608304262 1.769163273 7.501899451000001
-3.5425256939999996 1.6533825549999999 7.559240609
-3.5423778 1.67543795 7.544226944
-3.545303643 1.692865603 7.529605925
-3.5736080259999996 1.7912315200000002 7.441873847999999
-3.5473108289999997 1.703757979 7.523937523
-3.548222035 1.710293256 7.514982671
-3.5742744799999997 1.737814024 7.517001033
-3.5502295939999997 1.7211984839999999 7.509316504000001
-3.5549927500000003 1.7269346859999999 7.500162721000001
-3.560066968 1.7579874020000001 7.471514493000001
-3.566837311 1.774615981 7.456693053
-3.5455923530000004 1.6487419610000003 7.55963549
-3.5428371280000004 1.653898135 7.563123107
-3.5462297499999997 1.649811864 7.567405701
-3.6089412869999995 1.7454581340000002 7.5330458579999995
-3.495399654 1.8375722689999998 7.2983197870000005
-3.4963104869999997 1.844120584 7.289360464
-3.487503156 1.846286096 7.265862822999999
-3.501073271 1.849830896 7.280207425
-3.557600081 1.743821055 7.481656224
-3.5588376220000004 1.750910655 7.4765838680000005
-3.594904393 1.76344011 7.499802858
-3.5986080769999997 1.7598953099999999 7.507964969
-3.6018524320000003 1.753076166 7.520602643
-3.5566817969999995 1.7372727389999998 7.490611821
-3.489858285 1.828033477 7.308063656
-3.5743411629999997 1.8247593190000002 7.397291064
-3.5057697450000003 1.7686348410000001 7.390762866
-3.5023845730000005 1.77270826 7.386486232
-3.5017471760000003 1.771625504 7.378716022
-3.4979105 1.772437431 7.378914952
-3.497591987 1.7718961460000002 7.375029474
-3.5139475019999997 1.7653478310000001 7.4064925310000005
-3.5506516699999997 1.778960042 7.437477261
-3.495436162 1.783072017 7.365684956
-3.4929696470000002 1.7936807129999999 7.3524482550000005
-3.49095501 1.807589456 7.334734499
-3.493569419 1.7996875570000002 7.339607923999999
-3.494977206 1.7797978589999999 7.370160520000001
-3.520147875 1.8678387630000002 7.264193147
-1.98388081 4.23156172 5.207106844
-2.1095123140000003 4.24724929 5.158825964
-2.10503079 4.2469915 5.1512558010000005
-2.135297842 4.2421445250000005 5.133529007
-2.150394581 4.233430699 5.149449408
-2.090712264 4.259495064999999 5.134738237
-2.098260261 4.255151004 5.142699181999999
-2.068985812 4.279113933 5.101896077
-2.080237865 4.27121222 5.118020251
2.006081305 1.153161004 8.973380178
2.0380670199999997 1.152580883 8.980052173
-2.154238895 4.232618585 5.149250105
-2.107075602 4.228171334 5.1895737650000004
-1.79497432 4.278095812 5.024713278
-1.731877029 4.313170165 4.985112324
-1.7762705680000002 4.325183854 5.01570031
-1.719617657 4.3763455 4.957392812
-2.15808358 4.231806472 5.149050057
-2.1569872269999997 4.227436706 5.145759508
-2.168209665 4.224459082 5.141275376
-2.033674344 4.297560081 5.122126639
-1.89227201 4.368792102 5.055976659
1.972391829 1.1393168009999999 8.980536461
-1.808663458 4.336334020000001 5.051362887
-1.8061965700000002 4.346955568 5.038126931
-1.803270727 4.35430333 5.029375106
-1.8034117299999999 4.357048869 5.021011457
-1.808344945 4.360567778 5.024103075
-1.8060561270000002 4.344223067 5.046489090000001
-1.8120488149999998 4.3322350830000005 5.055638775
-1.8089821560000001 4.336862639 5.055245012
-1.775514893 4.366020486 4.990147054
-1.8125522880000002 4.377802089 4.957595468
-1.899375953 4.262008518 5.161923915
-1.895672083 4.265553504 5.153759941000001
-1.48888845 4.435086995000001 4.772729799
-1.45875467 4.4922553 4.735341296
-1.392568555 4.3660461900000005 4.594888911
-1.421643142 4.371434450000001 4.667495936
-1.378827542 4.411742464 4.609581083
-1.53020015 4.476490617 4.779537767
-1.525903866 4.449240490999999 4.807595164
-1.562852599 4.473242164 4.801244661
-1.301915385 4.745021462 4.641191661
-1.2915893459999999 4.709882662 4.66286689
-1.275744662 4.734657705 4.6447679399999995
-1.651372202 4.1028775269999995 4.8336252570000005
-1.626890525 4.248911887 4.930875823
-1.8508343029999998 4.369333386 5.03137745
-1.8311601130000001 4.345331714 5.060233921
-1.853138022 4.311313853 5.079119653
-1.842064038 4.317011684000001 5.075244978
-1.834515855 4.321368411 5.067281052
-1.707787998 4.447693377999999 4.904587194
-1.724721491 4.427262396 4.925981909
-1.701195352 4.428886622 4.931656271
-1.14830574 2.9460620140000002 3.1903788449999997
-1.106164418 2.95772776 3.184217215
-1.104031038 2.916917019 3.15419659
-0.6475279573 2.503047697 2.639212459
-0.6399278995000001 2.539488673 2.65468508
-0.6143349223 2.515254728 2.648187801
-1.2690852400000001 2.752578445 3.279208392
-1.152320672 2.896009013 3.161146492
-0.969362352 2.071467042 2.374173328
-1.001325715 2.052183077 2.370266616
-1.034237444 2.0345104860000003 2.378015965
-0.39776880290000005 -1.172922179 0.7719889283
-0.3937464673 -1.1451306749999999 0.7365640253
-0.3486717818 -1.1508926750000001 0.7450196892
-0.586593803 0.2646572888 0.6521813571
-0.5616823677 0.2812342485 0.6479132920999999
-0.5743639544 0.2510580234 0.6271693856
-0.7296106778 0.5749787670000001 0.9799335152
-0.7047658321 0.6065342575 0.9935092180999999
-0.6783062126 0.5684433971 0.9491596371
-0.5451117642000001 0.3443194553 0.6922949106
-0.5853937939 0.32448126 0.6957579404
-0.5933420733 0.3554953495 0.7226791233000001
-0.722640194 0.2040985972 0.6495319307
-1.125023793 2.8391625730000003 3.099542484
-1.159283705 2.811448462 3.096627258
-1.153720636 2.853870578 3.1270422040000003
-0.5017110612 -0.1536076539 0.2550013363
-0.6172312424 1.574751548 1.802437007
0.367131317 -2.027653158 1.7702374609999998
0.3343678778 -2.02327054 1.762970164
-0.6696468219 1.558484137 1.792462915
-0.5339707713999999 -0.26642368180000003 0.1724276692
-0.5568230059 -0.3830552567 0.0791978091
-0.537230121 1.528707426 1.767534763
-0.5746677518 1.50400959 1.736039668
-0.5819048267 1.546160877 1.781397685
-0.5751121324 1.5814932059999998 1.8168862909999999
-0.5465339404 0.08191129891 0.4696473479
-0.5488377529999999 0.1205177861 0.5119130015
-0.5239854567000001 0.10501074140000001 0.48420913520000003
0.11416464109999999 -1.117906347 0.7701434195
0.1503133099 -1.118228585 0.7731303573
0.1124386792 -1.137267612 0.8045848459000001
-0.3574866802 0.3655111184 0.7922995836000001
-0.5454969127 0.5751334596 0.9231697767999999
-0.5088222679000001 0.556610059 0.9127907455000001
-0.5118445493 0.5840664264000001 0.9366251528
-0.7490331773000001 2.682635561 2.777323499
-0.5667638499000001 2.5002505630000003 2.6461821050000003
-0.5725121591000001 2.574498765 2.6871886099999998
1.6186386350000002 2.277351171 2.8750769789999997
1.6466166819999999 2.25151889 2.8291355819999997
1.660646684 2.291749604 2.86055319
-0.433250796 0.23112958299999997 0.5497697741
0.004918590639 -1.068497729 0.7344514132000001
-0.02340034407 -1.06929699 0.7402244955
-0.03394864616 -1.043645199 0.6839811802
-0.06131940754 -1.046055742 0.6781090051
0.8692052214999999 -0.6090482696999999 0.3662541509
0.9599474259 -0.6265919656 0.39601065220000004
0.20338075700000002 0.009712640895 0.3574326634
0.2599149244 -0.02810754231 0.2756405622
0.6255647168 -0.6602614652 0.3814395517
0.6378760561 -0.6368397735 0.3592558205
0.5534229334 -0.7318156306 0.4333477467
0.5421783309 -0.6901283283 0.4027228802
0.5769492593 -0.7054162677 0.4156507552
0.8362936786999999 -0.6267208606 0.3740038723
0.8466049097 -0.5924068391 0.3461528569
0.09745329153 0.12502940369999999 0.5320254713
1.6476020219999998 2.182981186 2.778980508
1.67302452 2.181331255 2.761346847
1.660031639 2.151709236 2.744492516
1.698447019 2.179707028 2.7437247339999997
1.664602198 2.116634697 2.7218468490000003
0.9719401597999999 -0.6522179116 0.424464792
1.006999891 -0.623382302 0.4073664546
1.045763586 -0.6405779626 0.42885914440000006
1.0091480800000001 -0.6617954001 0.444772467
0.8159897290000001 -0.6016363389999999 0.35291612149999996
1.02809649 -0.6027061958 0.38229040799999997
0.5495562218 -0.6631746888 0.3836289048
0.5834159441 -0.6719143129999999 0.38760080929999996
0.7647667546 -0.6546928546999999 0.3919992596
0.8018339053 -0.6615505088 0.4039429128
0.7658556569 -0.6838378495999999 0.4120867699
