# .PCD v0.7 - Point Cloud Data file format
VERSION 0.7
FIELDS x y z
SIZE 4 4 4
TYPE F F F
COUNT 1 1 1
WIDTH 1610
HEIGHT 1
VIEWPOINT 0 0 0 1 0 0 0
POINTS 1610
DATA ascii
2.1188 8.237400000000001 66.7149
2.1052999999999997 8.2139 66.8176
2.7258999999999998 8.312 66.6818
2.4063 8.297400000000001 66.6956
2.0267 8.1258 66.8519
3.0436 8.1588 67.10679999999999
2.196 8.1409 66.889
2.4051 8.1485 66.8814
2.7649 8.1846 66.979
4.9486 8.2411 67.1794
4.5803 7.496700000000001 67.2298
3.0956 8.0506 67.2863
3.3168999999999995 8.1586 67.1395
4.2569 7.929899999999999 67.35510000000001
2.8413999999999997 7.9667 67.3314
5.1225 8.1738 67.298
6.903099999999999 8.423300000000001 67.011
6.7089 7.9658999999999995 67.3993
7.2363 8.2889 67.3153
5.5518 8.3492 67.2503
6.1850000000000005 8.286399999999999 67.3041
7.3241 8.0607 67.4281
7.5837 8.4056 67.4294
7.473599999999999 8.2489 67.5258
7.1953000000000005 8.0652 67.3964
7.5419 7.9371 67.5066
7.4393 8.0895 67.5003
6.9921 8.3302 67.0952
6.6202 8.336 67.143
5.424799999999999 8.439 66.8846
7.1729 8.155 67.3589
7.3189 7.5716 67.2576
6.443899999999999 8.392199999999999 67.1486
6.3229999999999995 8.3379 67.2371
6.457400000000001 8.2691 67.2534
6.819100000000001 8.3345 67.09530000000001
6.314 8.2086 67.33930000000001
7.6724 8.1607 67.7107
8.0994 8.3057 67.6248
8.593 8.453800000000001 67.2718
8.2928 8.4615 67.4193
8.4115 8.4139 67.4754
8.6945 8.3647 67.3729
7.8916 8.4703 67.4458
7.7473 8.5092 67.3892
8.427800000000001 8.4919 67.31909999999999
8.5452 8.4105 67.422
8.8546 8.4122 67.3582
7.5601 8.1262 67.5993
8.260000000000002 8.3338 67.6181
7.939 8.232000000000001 67.6905
8.5646 8.2289 67.7753
8.346 8.300699999999999 67.6931
8.3935 8.2392 67.79560000000001
9.547799999999999 8.1747 67.8843
8.74 8.2037 67.6945
9.0151 8.1752 67.7975
8.779399999999999 8.289399999999999 67.5159
8.8322 8.0623 67.9377
9.3587 8.251999999999999 67.7372
9.3991 8.1134 67.8922
9.222800000000001 8.2271 67.7264
9.104800000000001 8.238 67.6873
8.6297 8.3463 67.5067
8.220600000000001 8.9422 66.3944
9.3352 6.4524 68.4038
9.373199999999999 6.330900000000001 68.36619999999999
7.759399999999999 8.7219 67.15820000000001
8.9662 8.3864 67.488
8.9155 8.505799999999999 67.2083
9.7543 8.0536 68.1507
9.4573 8.4219 67.4791
8.259500000000001 8.5456 67.2805
8.4968 8.5888 67.0454
9.4772 8.7345 66.8233
9.8426 8.3272 67.5745
8.8894 8.807 66.6338
9.2604 8.6788 66.9576
8.809000000000001 8.5495 67.0801
8.6226 8.7095 66.7453
8.3306 8.6509 67.0086
7.893400000000001 8.7722 67.08420000000001
8.0531 8.700800000000001 67.1205
7.9174 8.6642 67.2416
7.7359 8.8193 67.0146
8.1168 8.7742 66.8878
7.6541 8.6552 67.2054
7.8633 8.581800000000001 67.3582
7.7608999999999995 8.6233 67.28020000000001
8.149099999999999 8.5075 67.39450000000001
8.0984 8.6041 67.25989999999999
8.168000000000001 8.7117 66.99629999999999
7.9956 8.5578 67.3762
8.3728 8.5784 67.1635
8.1136 8.8001 66.7622
8.4679 8.6617 66.8687
8.4307 8.7669 66.6652
8.0002 8.8313 66.8535
8.382100000000001 8.9257 66.35079999999999
7.8237000000000005 8.9032 66.69500000000001
8.1445 8.8816 66.5293
8.623 8.8095 66.58460000000001
9.053799999999999 8.8471 66.6028
8.946 8.9003 66.48610000000001
9.2998 8.7683 66.7837
9.5636 6.805999999999999 68.9001
9.5318 6.948899999999999 69.0105
8.1619 9.043800000000001 66.1561
7.949199999999999 9.3578 65.5257
8.9569 9.334299999999999 65.5675
9.3349 9.518699999999999 65.3766
8.2918 9.3615 65.63419999999999
8.4544 9.353499999999999 65.64750000000001
9.0033 9.273299999999999 65.7307
8.1319 9.3639 65.58239999999999
8.014899999999999 9.297600000000001 65.6604
7.6971 9.2638 65.6935
8.0821 9.5284 65.2577
7.8153 9.3841 65.4361
7.7596 9.3347 65.5594
7.968500000000001 9.2219 65.7714
7.26 9.550699999999999 65.01559999999999
7.6499 9.1807 65.8412
7.8664 9.2781 65.6683
7.514899999999999 9.2648 65.70660000000001
7.716399999999999 8.985899999999999 66.4026
7.7979 9.1309 65.88199999999999
7.9057 9.1541 65.8624
8.2661 9.1882 65.87150000000001
8.1571 9.2562 65.73400000000001
3.0633 9.1511 64.8628
7.893999999999999 9.5212 65.2065
7.7664 9.4442 65.3131
6.9 9.5198 65.0666
7.1834 9.679400000000001 64.7515
7.575 9.571100000000001 65.03330000000001
7.6877 9.662600000000001 64.875
5.6982 9.9595 64.0325
7.5093 9.4954 65.18169999999999
7.3383 9.3903 65.3555
8.4457 9.9522 64.8472
8.5989 9.735000000000001 65.1093
8.8869 9.481399999999999 65.28150000000001
8.344 9.8499 64.9503
7.940899999999999 9.8121 64.7124
9.1779 9.5467 65.2956
8.699 9.8167 64.9757
9.0451 9.3856 65.46079999999999
8.5131 9.8379 64.9741
8.8887 9.6083 65.19319999999999
8.808399999999999 9.733600000000001 65.0972
8.9906 9.4384 65.3412
9.1494 9.7339 65.1385
9.2068 9.4654 65.4451
9.1504 9.3967 65.50829999999999
9.0966 9.4736 65.3551
9.4864 9.1944 66.0622
9.3037 9.1695 66.0492
8.4474 8.9985 66.19699999999999
8.8845 9.2285 65.83670000000001
9.192400000000001 9.1223 66.1169
9.1727 9.0119 66.2732
8.6646 8.899700000000001 66.4285
8.280899999999999 8.988999999999999 66.2422
8.143 8.995899999999999 66.29159999999999
5.388 9.8795 64.0563
7.364800000000001 1.9182000000000001 63.9217
7.528899999999999 1.9630999999999998 63.92139999999999
7.9607 8.901299999999999 66.55839999999999
8.056000000000001 8.9544 66.4063
7.7638 8.936399999999999 66.53790000000001
7.4668 8.9785 66.4422
8.0603 9.163 65.9024
8.0249 9.0879 66.0678
7.893999999999999 9.1054 65.9667
2.3148 8.4626 66.1411
2.7091 9.1427 64.9616
2.4696 9.1968 64.87650000000001
2.2803 9.0433 65.0734
2.5415 8.9835 65.271
2.4036 8.6576 65.8399
3.0309 8.419599999999999 66.5429
2.3565 8.7941 65.5149
2.3897000000000004 8.7117 65.6879
3.6156 8.6988 65.96509999999999
1.7765 8.5957 65.9028
2.3888 7.8819 67.289
3.295 7.9784999999999995 67.43860000000001
2.4257 8.4103 66.2488
2.5516 8.4591 66.2304
2.5481 8.3702 66.35849999999999
2.1616 8.3779 66.4983
2.0281000000000002 8.4956 66.3807
2.4523 8.5168 66.1237
1.9132 8.573699999999999 65.8103
2.0858000000000003 8.5312 65.9919
2.2363 8.5486 66.02289999999999
1.9381 8.5377 65.9485
1.8572000000000002 8.6612 65.7102
1.6827 8.5664 66.1054
1.8648000000000002 8.3535 66.3501
2.1135 8.713700000000001 65.76689999999999
2.0827 8.848799999999999 65.4321
2.2074 8.904 65.3409
6.9959999999999996 9.3646 65.35499999999999
1.8960000000000001 8.8248 65.411
1.8832000000000002 9.098 65.022
2.1725000000000003 9.2625 64.8154
2.3876999999999997 9.1332 64.96459999999999
2.1637 8.9709 65.19500000000001
2.6356 9.0631 65.1117
3.5381000000000005 9.0754 65.10810000000001
2.8884 9.1448 64.9262
2.5426 9.1347 64.9745
3.3167 9.2911 64.6354
3.873 8.236799999999999 66.9824
7.3723 9.328 65.5416
1.9642 8.977300000000001 65.1781
2.0787 8.923 65.2956
7.026000000000001 9.4617 65.1626
7.270300000000001 9.4869 65.1304
6.4973 9.600999999999999 64.672
6.9246 9.6923 64.7104
7.188400000000001 9.42 65.2443
7.4542 9.436 65.2976
7.4949 9.3832 65.4191
7.4391 9.616 64.90259999999999
7.162 9.4891 65.1058
7.3988 9.5291 65.0796
7.2252 9.6212 64.87270000000001
6.5029 9.693200000000001 64.54729999999999
6.34 10.019300000000001 63.857699999999994
6.1533999999999995 9.9945 63.931400000000004
7.7916 9.8401 64.4987
7.488499999999999 9.745099999999999 64.61280000000001
7.039 9.6343 64.8301
7.3568999999999996 9.697799999999999 64.7262
6.8621 9.6348 64.8401
7.009799999999999 9.8125 64.4769
4.6057 9.665700000000001 64.364
3.2037000000000004 9.7868 63.9866
4.6046 10.0691 63.3494
4.1289 10.000499999999999 63.4367
4.2914 10.0729 63.25429999999999
3.5818999999999996 10.0918 63.255399999999995
4.9127 10.144499999999999 63.278
4.6827 10.1524 63.259699999999995
4.8461 10.0405 63.4947
5.6918999999999995 10.1173 63.3078
6.1683 10.156 63.3234
5.4727 9.9807 63.749100000000006
5.4377 9.9717 63.6207
5.334499999999999 9.9723 63.6829
5.9036 10.0707 63.436499999999995
6.6617999999999995 10.1008 63.4995
5.5715 9.9916 63.646899999999995
5.663 10.010299999999999 63.5182
6.190799999999999 10.041500000000001 63.745
6.1034999999999995 10.2349 63.1937
6.5451999999999995 10.2455 63.2887
6.656 10.044599999999999 63.6706
6.3786 10.0911 63.5096
6.529400000000001 10.1369 63.430699999999995
6.805400000000001 10.0863 63.5707
5.5655 10.1205 63.274300000000004
5.6684 10.1887 63.2027
6.3474 10.2616 63.227900000000005
5.3319 10.238999999999999 63.0695
6.680999999999999 10.184600000000001 63.3591
7.5738 10.2325 63.6683
7.6143 10.0584 63.959500000000006
7.2417 10.0775 63.802099999999996
5.7113 9.8636 64.13250000000001
6.3316 9.9412 64.06500000000001
7.106999999999999 10.1451 63.5576
7.249899999999999 10.1411 63.6781
7.1221000000000005 10.0953 63.728300000000004
4.5748999999999995 9.9666 63.56119999999999
4.2961 9.9962 63.4035
4.4606 9.976799999999999 63.4472
4.9718 9.8477 64.0273
5.378 9.9605 63.832100000000004
2.5780000000000003 9.956199999999999 63.48160000000001
2.9997 9.577399999999999 64.2522
3.15 9.9708 63.38890000000001
2.9603 10.081 63.182300000000005
3.6198 9.908999999999999 63.5946
3.9385999999999997 9.9454 63.6426
4.0452 9.981 63.5398
3.7878000000000003 9.8788 63.7383
3.3972 9.8467 63.716300000000004
2.0892 9.7156 63.989700000000006
4.6585 9.897499999999999 63.9049
2.7918 9.2914 64.6779
3.9962 9.9097 63.8003
4.295 9.7936 64.1036
4.129300000000001 9.783100000000001 64.0901
4.6478 9.9254 63.7393
4.1139 9.9453 63.678000000000004
3.8823999999999996 9.851 63.9236
4.0616 9.8458 63.9494
4.782299999999999 9.863199999999999 63.9924
4.039899999999999 9.6869 64.2074
3.9127 9.5927 64.2585
3.4680000000000004 9.6967 64.1482
3.8572 9.7028 64.1469
3.4488 9.7858 64.0025
3.3543999999999996 9.6027 64.24889999999999
3.4811 9.5032 64.3586
3.3293000000000004 9.493699999999999 64.3628
2.919 9.2265 64.78009999999999
3.5842 9.8458 63.735299999999995
3.4912 9.830400000000001 63.8455
3.3039 9.817 63.8494
3.0859 9.721 64.0853
2.7356 9.4507 64.4517
3.6709 9.8216 63.9179
3.6566 9.7233 64.10810000000001
5.5051000000000005 9.9794 63.8683
3.9631 9.7875 64.0637
3.8079 9.7955 64.0419
5.4555 9.9462 63.961999999999996
5.3079 9.7682 64.1499
4.8048 9.779599999999999 64.1338
5.5122 9.8117 64.1502
5.603899999999999 9.9795 63.950799999999994
6.980899999999999 9.9769 63.99399999999999
4.6117 9.760299999999999 64.1996
5.1308 10.0918 63.335699999999996
5.9075999999999995 9.8759 64.13250000000001
5.9614 9.9718 63.9929
5.7533 10.0686 63.4116
5.7794 9.9947 63.9064
5.196 10.004399999999999 63.4452
4.8422 10.1103 63.379799999999996
4.7367 10.0854 63.3896
5.0185 10.0458 63.4502
5.257499999999999 10.1263 63.26349999999999
6.9283 2.0422 63.8629
6.5009 10.0239 63.761599999999994
6.8328 10.2246 63.3122
6.510000000000001 9.9716 63.943799999999996
6.784 10.1332 63.4213
6.1789 9.8123 64.31219999999999
7.6278 1.9744000000000002 64.12480000000001
6.54 9.9009 64.13119999999999
6.114 9.904200000000001 64.132
7.9162 9.9444 64.2628
6.8371 9.8416 64.3318
6.0258 9.3501 65.0617
5.3862 9.4239 64.66229999999999
8.0601 9.924800000000001 64.5198
7.949599999999999 10.1625 64.0671
7.1935 10.3023 63.3165
6.67 9.7243 64.5749
4.7542 9.586500000000001 64.4543
4.9192 9.6781 64.2457
5.0347 9.5799 64.3243
4.8921 9.588199999999999 64.3835
5.1372 9.5073 64.403
5.1996 9.5736 64.2799
5.9956000000000005 9.7922 64.27159999999999
5.6335999999999995 9.7329 64.2364
6.4079 9.873800000000001 64.24210000000001
6.443899999999999 9.7927 64.3914
6.7125 9.8648 64.2312
7.3714 9.9767 64.0701
7.24 9.888 64.35260000000001
6.9688 9.8691 64.358
6.306399999999999 9.7194 64.4593
6.317 9.8291 64.3277
8.051400000000001 9.8718 64.67530000000001
6.7708 9.6905 64.71719999999999
7.103 9.7883 64.5546
8.2667 9.9345 64.82860000000001
8.333 10.0015 64.6987
6.972799999999999 9.7455 64.5781
6.8916 9.7916 64.4572
6.3763 9.5303 64.74210000000001
6.5662 9.8233 64.3064
6.726699999999999 9.7806 64.4164
6.233099999999999 9.5856 64.5899
4.228400000000001 9.7067 64.2381
4.3343 9.6335 64.41789999999999
4.945 9.4231 64.6952
3.2399999999999998 9.4498 64.4191
3.656 9.4993 64.3356
4.3694 9.369299999999999 64.8246
3.2125 9.2028 64.7687
3.028 9.3728 64.5354
3.3836999999999997 9.403400000000001 64.4816
3.8645 9.434800000000001 64.4712
3.8145 9.5005 64.3383
3.9539999999999997 9.5118 64.3835
5.0357 1.6788999999999998 64.1255
3.5639999999999996 9.6075 64.2408
3.1722 9.5193 64.30550000000001
4.1567 9.6293 64.37389999999999
4.028099999999999 9.5974 64.335
2.9616 9.3027 64.655
2.6623 9.3856 64.5965
2.4868 9.3708 64.6601
2.4753000000000003 9.277199999999999 64.77770000000001
3.0107 9.4984 64.34020000000001
2.9282 9.4365 64.4292
2.5961000000000003 9.2116 64.851
2.6261 9.2953 64.7255
1.7546 9.259 64.768
1.9236 9.3944 64.53659999999999
2.2548 7.6044 67.7741
1.2654 9.3099 65.03280000000001
2.5404 7.6755 67.6662
2.4192 7.6343 67.7426
2.8542 7.649699999999999 67.6584
2.3709000000000002 7.6845 67.6286
2.5184 7.7612 67.5134
2.7878 7.8759999999999994 67.4714
2.611 7.4394 68.0103
2.4124 7.568900000000001 67.8526
2.8525 7.4284 68.035
3.1199 7.5674 67.8468
2.4889 7.4334999999999996 68.0802
3.5095 7.582800000000001 68.0732
2.0589 7.3039000000000005 68.24130000000001
3.7932 7.8089 67.8675
3.3632000000000004 7.489700000000001 68.20540000000001
3.495 7.677499999999999 67.9271
3.324 7.422 68.3697
3.1428 7.4931 68.1041
3.2002999999999995 7.451099999999999 68.3283
3.4537999999999998 7.8227 67.70779999999999
3.6106 7.652399999999999 67.98819999999999
2.9533 7.4334 68.1366
3.0380000000000003 7.4307 68.2936
8.705499999999999 7.9055 68.3404
3.7461 7.682600000000001 67.9677
4.245 7.497 67.6836
3.8315 7.6017 68.0303
3.9822 7.5378 67.9683
4.7058 7.5374 67.1353
3.9991 7.1739999999999995 67.9004
3.3845 7.7204999999999995 67.8209
3.2708 7.781000000000001 67.68889999999999
3.9202 7.7138 67.9442
2.922 7.785699999999999 67.5769
4.4064 7.3389 67.4123
3.1556 7.6794 67.7239
3.0986 7.780099999999999 67.6305
3.2537000000000003 7.6654 67.8075
6.9846 7.6532 67.2878
7.3912 7.497199999999999 67.3956
7.2851 7.6411999999999995 67.23440000000001
3.6441 7.8525 67.7524
3.5475 7.9333 67.6087
5.3214999999999995 7.943300000000001 67.3469
3.6334999999999997 7.7375 67.8847
3.8115 7.872700000000001 67.7427
3.5177 7.766000000000001 67.8207
3.9351 7.7979 67.7932
9.2502 8.0543 67.8869
8.8936 7.917299999999999 68.18809999999999
8.6101 7.9954 68.2172
8.7688 7.9568 68.1947
8.991399999999999 7.8594 68.2526
9.068800000000001 7.820399999999999 68.3672
8.9185 7.3396 68.7536
9.3363 6.8259 68.6423
9.1217 7.9126 68.2434
9.2676 7.645299999999999 68.899
9.597999999999999 7.6571 68.90039999999999
9.2171 7.973199999999999 68.0048
8.678700000000001 8.0524 68.04639999999999
8.855300000000002 7.9833 68.0778
9.3851 7.9742999999999995 68.0582
9.085 8.0685 67.9243
8.9502 8.0799 67.88300000000001
9.665799999999999 3.0488999999999997 67.1678
9.8126 2.5585 67.56649999999999
9.6975 2.4583 66.4298
8.4914 8.1475 67.9337
8.6921 8.1355 67.8612
8.488800000000001 8.0717 68.1065
7.671600000000001 7.979700000000001 67.6646
5.8876 7.7915 67.4939
8.9081 7.0991 68.57130000000001
9.107 6.7699 68.4749
8.0837 8.199 67.7919
7.4796000000000005 7.7425 67.3173
4.4899000000000004 7.714300000000001 67.4096
5.5113 8.0838 67.4332
5.5938 8.193200000000001 67.37910000000001
5.3012 8.1933 67.33869999999999
5.376 8.0658 67.36619999999999
4.5553 7.8271999999999995 67.3872
4.3794 7.8173 67.37910000000001
4.5047 7.578799999999999 67.3565
4.692 7.8522 67.3215
6.573900000000001 7.943600000000001 67.4333
6.7288 8.079600000000001 67.2982
8.6756 8.611099999999999 66.9323
7.133100000000001 7.918500000000001 67.3275
7.5883 7.0973 67.6349
7.1951 6.2291 67.04870000000001
4.7332 7.7169 67.2328
4.9367 7.8849 67.3199
4.5906 7.718 67.3188
5.2149 8.0154 67.2804
4.6142 7.6172 67.23
3.4015999999999997 8.071200000000001 67.32669999999999
4.9304 8.1568 67.2601
4.7344 8.1273 67.2341
3.0124999999999997 8.0938 67.2094
3.0115 8.2046 66.999
4.7234 6.9453000000000005 66.884
5.1067 2.1197 64.247
2.2865 8.0617 67.0301
1.8756 7.818300000000001 67.20479999999999
2.5039 7.919 67.3015
2.562 7.8515 67.4001
4.9208 1.5997000000000001 64.2475
1.5699999999999998 7.9277 67.14
1.6773 7.6771 67.5822
2.0196 7.7545 67.2872
2.2897 7.8905 67.2418
3.1386 8.1304 67.1859
2.9059 8.0359 67.2186
3.114 7.9581 67.406
2.987 7.996499999999999 67.3157
2.4396 7.824000000000001 67.3847
2.2109 7.9266000000000005 67.128
1.7121999999999997 7.7528 67.4265
1.8629 7.7401 67.3587
2.2994 7.8161 67.33970000000001
1.7245 7.8803 67.1642
2.3842 7.978599999999999 67.18509999999999
5.0996 1.5056 64.4676
4.822 1.4795 64.5613
6.0324 1.8316 64.0181
4.750900000000001 4.534599999999999 65.6541
5.1552 4.5291 65.5556
4.8432 4.7299 65.9014
4.4817 4.4574 66.02550000000001
5.0601 1.6163 64.3236
4.767600000000001 2.1167 64.51559999999999
5.2892 1.4602 64.5102
5.1248000000000005 1.4269 64.59819999999999
4.612299999999999 1.4201 64.56150000000001
5.4724 1.4227999999999998 64.6119
4.6899999999999995 1.204 64.9375
4.9933 2.4678 64.4708
4.3259 1.2546 64.63210000000001
4.5692 1.3067 64.8372
4.2228 1.1847 64.9396
4.4844 1.3432 64.6641
4.5506 1.549 64.4874
4.1495 1.1965 64.7151
5.5123999999999995 2.7565 64.5258
5.328 3.5576999999999996 65.0073
4.4384 1.4316 64.5741
4.1077 1.1207 64.8255
4.0035 1.0637 64.9516
3.592 0.7936000000000001 65.6286
4.3091 1.4815 64.659
4.1555 1.7617 64.91980000000001
4.3271 1.2241 64.93809999999999
4.5077 1.2093 64.9495
4.2435 1.1872 64.76180000000001
5.407 0.9793 65.3817
4.4078 1.2793 64.81559999999999
4.933 4.9334999999999996 66.0139
4.9211 4.3101 65.4198
5.6487 4.0072 65.35600000000001
4.9608 3.984 65.2424
4.449199999999999 2.1444 64.7876
3.3612999999999995 0.060899999999999996 66.9126
4.7499 5.391900000000001 66.0321
4.2481 4.1899 66.2231
5.6739 4.6773 65.85180000000001
6.0799 1.2843 64.91749999999999
4.2289 5.086799999999999 66.7016
4.7216000000000005 5.1471 65.9795
4.5497000000000005 4.9463 66.30669999999999
5.3546000000000005 5.4523 66.1744
4.657900000000001 5.4146 66.1744
4.5389 5.6292 66.53179999999999
5.0236 5.8589 66.5433
5.1295 5.6111 66.24849999999999
3.8431 0.6411 65.85889999999999
3.7184000000000004 0.697 65.7478
3.7415999999999996 0.47679999999999995 66.2094
3.8119 0.5591999999999999 66.0389
9.552900000000001 1.3566 65.567
3.4951000000000003 0.7789 65.4477
3.6637000000000004 0.4223 66.32289999999999
3.5707999999999998 0.44380000000000003 66.2333
3.5589999999999997 0.3796 66.3537
3.5053 0.3081 66.4679
3.4794 0.5740999999999999 65.9556
3.7901 0.7758 65.6247
3.2921 0.7436 65.733
3.2777000000000003 0.6027 66.3208
3.3160000000000003 1.1926 66.2786
3.6978999999999997 0.864 65.4974
4.403 0.7088 65.8259
3.9633000000000003 0.7551 65.6404
3.9475000000000002 0.9521 65.4121
3.7732 1.2463 65.2664
3.5155 1.1814 65.69120000000001
3.6224 0.8500000000000001 65.33099999999999
3.9244000000000003 1.763 65.2457
5.2048 1.6483999999999999 64.23299999999999
3.7757 0.9294 65.3534
3.8767000000000005 0.8888999999999999 65.5274
3.8607000000000005 0.6984 65.7231
4.837899999999999 1.0354999999999999 65.17269999999999
4.1649 1.1292 65.0505
6.930699999999999 5.2358 66.48819999999999
4.723 0.902 65.4149
5.7440999999999995 1.5880999999999998 64.3834
3.5867999999999998 1.8520999999999999 65.8713
4.1451 0.9793 65.3689
4.8549 1.1185 65.0256
5.8575 1.6854 64.2973
6.1979 1.8530000000000002 64.1757
5.4919 1.5476 64.3321
6.3806 1.7907 64.2778
5.4781 1.6265 64.2349
5.3675 1.5068 64.3931
5.2299999999999995 1.5411 64.3762
5.3567 1.5829 64.29310000000001
7.077400000000001 1.7413999999999998 64.3741
7.0604 1.7804 64.2591
6.7588 1.7874999999999999 64.2593
6.644799999999999 1.8632 63.925399999999996
6.7789 1.8800000000000001 64.0988
6.578100000000001 1.7333 64.3503
6.228199999999999 2.2085 64.0029
6.361600000000001 1.8594 64.1271
6.0151 1.8022 64.2287
5.9322 2.0675 64.0528
6.6259 1.8768 63.7739
5.5537 1.9449 64.0187
5.6505 1.6489 64.2298
5.4049 1.9185 64.0233
6.421499999999999 1.8494 63.949999999999996
6.7841 1.897 63.785000000000004
7.3188 1.7919999999999998 64.2269
7.0756 1.7996 64.12689999999999
5.597300000000001 2.2864 64.20479999999999
7.344399999999999 2.0292 63.864900000000006
7.334300000000001 2.3138 64.1266
7.1365 2.3196000000000003 64.0467
6.755 2.4916 64.266
7.0067 1.6872000000000003 64.4859
6.836 1.8785 63.93489999999999
7.2185 1.9213 63.8564
7.176100000000001 1.7889 64.2115
7.1733 1.5657999999999999 64.6598
7.4752 2.1584 63.9702
5.2867999999999995 3.9425000000000003 65.23440000000001
7.2616 1.9068 64.0281
7.9375 1.9624 64.183
7.681100000000001 2.0509 64.0026
7.7922 2.2539 64.4749
8.0876 1.9372 64.2993
9.0392 1.6337000000000002 65.1126
9.1929 1.6256 65.18979999999999
8.5102 1.8097999999999999 64.6596
8.3797 1.9884 64.5951
8.5924 2.32 65.1878
8.357000000000001 1.8078 64.57169999999999
7.8446 1.8807 64.301
7.777100000000001 1.5817 64.62259999999999
8.1734 1.8481999999999998 64.53370000000001
8.301699999999999 1.6258000000000001 64.725
7.9639 1.9 64.3787
7.4004 1.9227999999999998 64.0934
8.7025 1.5181 64.91940000000001
8.4509 1.7386 64.7606
9.513 1.7755 65.5869
9.7729 1.9521 66.2522
9.447600000000001 1.934 65.6135
8.577300000000001 1.7375999999999998 64.7402
7.8496999999999995 4.2222 66.3491
8.7439 1.6556000000000002 64.8744
9.1205 2.1436 65.4832
9.7276 1.1028 66.133
8.667900000000001 1.7143 64.80930000000001
8.877500000000001 1.6073 64.9846
9.439300000000001 0.9206000000000001 66.215
10.0015 1.1659 66.1992
9.968399999999999 1.145 66.0534
9.841099999999999 1.1663 65.98079999999999
9.902099999999999 1.0677 66.143
9.6966 3.2169999999999996 67.7282
9.8018 1.0252000000000001 66.276
9.9244 1.4345999999999999 65.9281
9.4222 1.0169 65.9213
9.5546 1.3074999999999999 65.6987
9.701600000000001 0.9107000000000001 66.4965
9.3617 2.8508999999999998 66.4472
9.4567 1.1377 65.7637
10.052 0.2167 67.7893
9.9582 1.3127 65.9192
9.8078 1.7188999999999999 65.9716
9.8989 1.2265 65.8262
9.711699999999999 1.2637 65.8145
9.9403 -0.0235 67.92
9.7859 -0.0842 67.86919999999999
9.3876 1.4194 65.42609999999999
9.4353 1.3305 65.4825
9.394 1.2207000000000001 65.564
9.6941 1.3266 65.6662
9.6258 1.4223 65.617
8.0636 0.9190999999999999 65.8167
9.2034 1.5211999999999999 65.25750000000001
5.8262 5.7877 66.5521
7.4281 5.6917 66.8281
9.1949 1.1755 65.4668
10.139 0.507 68.2511
10.049 0.406 68.3388
8.9769 1.484 65.0753
9.431000000000001 1.54 65.3895
9.293 1.4659 65.3382
8.981200000000001 0.8024999999999999 66.3527
8.8591 0.9379000000000001 65.75
8.5692 1.1917 65.2515
8.643099999999999 0.395 67.2289
9.5146 3.5086 67.0591
9.4209 3.6736 67.1167
4.4435 -0.2043 68.0216
4.4323 -0.40879999999999994 68.5998
4.1537 -0.49820000000000003 68.392
9.182 3.5045 66.7095
9.7007 0.8259000000000001 66.6438
9.4783 0.1507 67.58330000000001
9.7217 0.34559999999999996 67.5158
10.137 0.49579999999999996 68.073
8.4215 3.3154999999999997 71.15740000000001
9.2388 0.3023 67.43090000000001
9.614799999999999 0.3716 67.4217
9.472800000000001 0.4903 67.2034
9.9961 0.5073 67.42479999999999
9.4042 3.9527 67.2586
9.5215 4.2368999999999994 67.4423
9.0247 3.7844 66.826
8.4734 3.3536 71.3492
9.5992 4.0716 67.55630000000001
9.3976 3.2474999999999996 66.7489
9.501 4.0137 67.35799999999999
9.598700000000001 3.9042 67.29899999999999
9.6327 3.5093 67.5094
9.8365 4.5674 68.9848
9.7666 4.9459 68.428
9.7872 4.592099999999999 68.4399
9.6178 3.6502 67.15060000000001
9.6262 -0.21120000000000003 68.235
8.878 4.1353 66.94590000000001
8.0569 5.9191 67.1356
8.3108 3.0964 70.83460000000001
8.2612 3.1496000000000004 70.9713
8.1175 5.0571 66.90509999999999
8.7265 4.7586 67.0973
8.636199999999999 5.1753 67.1998
9.2928 5.3362 67.6794
8.727500000000001 5.627 67.444
9.6209 -0.191 68.0768
9.7951 4.8576 68.8457
9.7142 5.2577 68.6989
9.4911 5.0539000000000005 67.7042
9.8476 3.6852000000000005 68.4994
9.7932 4.2614 68.4363
9.6835 3.1449 66.9077
9.9033 0.7202 66.8745
9.7243 0.7091000000000001 66.89110000000001
9.7227 1.4979 69.2675
9.7459 3.5631999999999997 68.0729
9.9104 2.2002 68.3652
9.9528 1.1172 67.4389
9.713099999999999 -0.2703 68.5762
9.979000000000001 0.1114 67.89269999999999
10.0037 0.424 67.5085
9.9355 0.3593 67.5496
9.9047 0.1966 67.7853
9.9811 0.5488999999999999 67.707
10.0183 0.21020000000000003 68.3128
9.9511 0.27799999999999997 67.6786
9.863199999999999 -0.0601 68.0483
9.9967 3.1483999999999996 69.49260000000001
9.9621 3.4718999999999998 69.1861
9.7331 -0.1301 68.0187
9.7782 0.209 67.706
9.7676 -0.1424 68.3107
10.0625 0.07339999999999999 68.0094
9.540899999999999 -0.0666 68.989
9.4956 -0.4018 68.81190000000001
9.7122 -0.21020000000000003 68.7824
9.8687 4.125100000000001 69.2117
9.9954 3.6243999999999996 69.7369
10.0351 0.015 68.0985
10.1088 0.1925 67.9738
10.108 0.1283 68.14620000000001
10.113999999999999 0.7798 68.3459
10.1466 0.6382 68.31620000000001
10.1441 0.906 67.9765
9.5449 -0.2741 68.5376
9.653 -0.2076 68.4195
9.6065 5.9552000000000005 68.547
10.081800000000001 1.3973 68.685
9.103200000000001 6.170599999999999 68.0879
9.2205 5.9019 67.9848
9.3249 2.9854 70.094
9.924 0.6201 67.0791
8.4084 5.9227 67.34830000000001
7.149500000000001 6.6465 67.3189
10.839500000000001 5.9117999999999995 72.1973
9.6398 7.0842 69.7181
8.783100000000001 7.4433 68.6815
8.5707 7.535500000000001 68.49199999999999
8.9741 5.8199000000000005 67.774
8.3962 3.1508000000000003 70.8878
9.7782 4.6216 70.3041
9.7582 5.0908 69.7095
9.3726 3.7104999999999997 70.4298
10.000399999999999 3.2710999999999997 69.6149
9.5138 -0.2052 68.0044
9.6279 -0.1563 67.9345
9.6855 5.0598 68.0158
9.493 -0.2783 68.3317
9.252199999999998 -0.0531 67.7975
9.478200000000001 -0.2565 68.1397
9.3436 -0.2604 68.09530000000001
9.4079 -0.2197 68.0122
3.7872999999999997 -0.4334 68.0604
3.8838999999999997 -0.6093999999999999 68.3793
3.7312 -0.8033999999999999 68.4348
0.975 1.9588999999999999 70.70840000000001
2.3810000000000002 2.8131 69.6461
3.4924999999999997 -0.4024 67.7698
3.8867 -0.3111 67.9084
2.8072 0.7279 68.5078
3.6576999999999997 -0.0977 67.28659999999999
3.4591 -0.14450000000000002 67.3021
3.9823999999999997 0.2616 66.8194
3.6408000000000005 0.12190000000000001 66.879
4.6821 6.8348 67.0169
5.5361 6.885 67.1248
3.5180000000000002 0.188 66.68889999999999
4.9261 6.1547 66.99040000000001
6.0373 6.410399999999999 66.9641
3.6524 0.35569999999999996 66.4532
3.4603 0.234 66.5973
4.5857 7.1968000000000005 67.1315
4.9620999999999995 7.284599999999999 67.0623
4.2537 7.3476 67.5962
2.2034000000000002 3.9245 70.7188
2.643 3.7008 70.0582
7.9949 2.7772 71.1083
3.0945 5.2056 69.9342
3.0668 5.7919 69.65209999999999
4.1193 6.7485 67.6223
3.8777 6.8718 67.99730000000001
3.6869 6.5765 68.1666
2.7522 7.170400000000001 68.5277
2.3082 7.221 68.4845
2.5725000000000002 7.385400000000001 68.12129999999999
2.9454000000000002 7.3491 68.42049999999999
2.8750999999999998 7.0456 68.7874
1.8738000000000001 7.3733 68.0689
2.1544 7.3508000000000004 68.1987
1.9144999999999999 7.287100000000001 68.2158
1.7898 7.2155 68.37910000000001
2.2960000000000003 7.366599999999999 68.211
8.5343 7.671500000000001 68.4657
2.6732 7.371700000000001 68.105
2.041 7.3698 68.1087
3.0416 1.1974 67.2102
3.2316 0.44270000000000004 67.00110000000001
3.4913 -0.6464 68.20540000000001
3.6104 -0.5204 68.1053
3.7876 7.466399999999999 68.1067
3.965 -0.697 68.4808
4.489 -0.8071999999999999 68.9105
4.2568 -0.7169 68.6734
4.9644 -0.9198 69.3056
8.008899999999999 -1.077 69.4907
4.6596 -1.1566999999999998 69.18379999999999
4.5657000000000005 -0.9172 68.97189999999999
3.8539 -0.7162 68.4295
3.9988 -0.5117 68.2893
-1.8461 2.7336 73.4901
0.886 3.9667 71.966
4.6246 -0.8191 69.0217
2.9937 3.1054 69.37259999999999
4.7943 -0.9924999999999999 69.17060000000001
8.146 -0.9905 69.3415
7.6735999999999995 -0.9315 69.5848
7.6378 -1.0301 69.6654
2.7091 3.1229 69.7595
5.0771 -0.8114 69.368
4.8614 -0.9047 69.2205
8.1682 -0.5527 68.96860000000001
8.9246 -0.7383 69.3234
8.431700000000001 -0.8528000000000001 69.1498
8.8924 -0.5059 70.3244
10.2129 0.768 72.25059999999999
8.9504 0.2549 70.8285
7.5207 -0.941 69.6709
7.542999999999999 -0.6086 69.3779
8.161999999999999 -1.0453999999999999 69.5153
8.3459 -0.9237000000000001 69.2804
8.2789 -0.9816999999999999 69.4533
8.3271 -1.0333999999999999 69.7773
5.1715 -1.1074000000000002 69.4769
5.0878 -0.9991 69.3911
4.9711 -1.0632000000000001 69.3184
8.459 -0.8915 69.4999
8.302900000000001 -0.9809999999999999 69.6376
7.9055 -1.0841 69.6649
7.6888 -1.1095000000000002 69.7445
7.324 -1.1834 69.7811
7.177 -1.1820000000000002 69.78259999999999
7.8816 -1.2406000000000001 69.8195
7.8156 -1.1132 69.7357
8.2307 1.9263 70.9349
6.897200000000001 -0.8074 69.72279999999999
6.1939 -1.4017 69.9067
8.1175 -1.0827 69.6608
6.7241 -0.5637 69.4041
7.2783 -1.0907 69.75529999999999
9.0617 1.1432 69.9079
6.604699999999999 -1.0775 69.7674
5.8631 -1.1044999999999998 69.765
5.5154000000000005 -0.8900999999999999 69.5789
5.606400000000001 -1.2327 69.7368
2.9817 3.381 69.68469999999999
3.1027 3.7712000000000003 69.2414
5.9237 -1.4027 69.9303
7.8402 3.4664 72.449
6.2565 -0.8566 69.6441
6.1354 -1.1433 69.8
2.3864 3.1752000000000002 70.09830000000001
5.8968 -0.9676 69.7342
5.586 -1.3997000000000002 69.8447
5.408 -1.3878 69.7239
5.1241 -1.3121 69.5191
6.622400000000001 -1.3721 69.9029
7.227799999999999 -1.3271 69.8669
6.8997 -1.1917 69.8236
6.1649 -1.2654 69.8489
6.3039 -1.2475 69.8518
5.7498000000000005 -1.4123 69.8917
8.1803 2.1062000000000003 71.1348
8.5875 3.0734999999999997 70.63080000000001
9.463199999999999 3.4588 70.23660000000001
9.2894 3.3057000000000003 70.1688
8.8172 0.9582 71.3471
9.4886 0.9622 71.93260000000001
9.3627 1.9042 72.47789999999999
8.1935 1.5448 71.1128
8.2821 1.7152 71.0936
8.3099 1.8733 70.8181
8.4702 1.7565000000000002 70.7133
8.1263 2.2316 71.1527
8.1778 2.2301 71.322
8.1722 2.0413 70.9696
8.2076 1.9931999999999999 70.8475
8.1569 2.3213999999999997 70.8038
9.7306 2.4065 69.6508
8.1149 2.1858 71.0111
8.2246 2.4112 71.375
8.2954 2.62 70.71159999999999
8.6632 2.5934 70.4838
8.762699999999999 1.1708 70.1007
8.5755 0.8416999999999999 70.3095
7.964200000000001 2.9047 71.2322
7.9876000000000005 2.9327 71.053
8.0741 2.3278 71.0795
8.7452 1.6966999999999999 70.4604
8.3786 2.3007 72.20450000000001
8.1434 1.9761999999999997 71.3094
9.4656 3.345 73.424
8.280899999999999 4.5008 73.2374
7.9805 4.137 72.9402
9.643500000000001 4.3576999999999995 73.9406
8.3288 3.3397 71.4619
7.843799999999999 3.3777 72.4328
8.3111 1.69 71.5107
10.7169 4.0716 74.5792
2.7056 5.2539 71.422
3.1088 5.2643 71.25439999999999
7.6762999999999995 3.8236 72.6409
8.1565 3.6275000000000004 72.77029999999999
3.5883 5.3007 70.8972
3.3485 5.4483 70.5757
5.6101 5.2545 71.6782
7.1777999999999995 4.3216 72.3079
7.5436000000000005 3.9811 72.2693
8.9756 3.4307999999999996 70.5919
8.8751 3.3545 70.6511
8.3873 3.4915000000000003 71.7877
8.065700000000001 3.2897999999999996 72.3737
8.3023 3.2376 72.5172
7.8825 3.5527 72.25200000000001
8.590499999999999 3.4172000000000002 72.9244
8.299900000000001 3.5793 71.8983
7.2702 4.6502 72.6962
7.9578 4.952 73.042
7.6818 3.642 72.4166
8.171100000000001 3.6413 72.0087
7.8087 3.8026999999999997 72.17320000000001
8.4611 3.4153000000000002 71.55369999999999
8.3092 2.8893999999999997 72.2398
8.1038 2.9774 71.92450000000001
8.877799999999999 5.5443 72.47109999999999
9.639899999999999 5.4952000000000005 71.0158
8.4145 3.3813000000000004 71.6815
8.344899999999999 3.3111 71.60170000000001
8.6744 3.5773 71.2285
9.556199999999999 3.5584 70.2403
8.874 3.6944 71.2582
8.2734 3.1786000000000003 71.5878
8.1761 2.9455 71.36590000000001
8.596 3.5027000000000004 71.4541
8.041 2.9766999999999997 71.30959999999999
8.1843 3.0429 70.8483
8.2271 3.0016000000000003 71.5948
8.1044 2.8559 71.3408
6.1687 4.938 72.1143
8.0938 2.459 71.1971
8.2797 3.1357999999999997 71.29180000000001
8.0283 3.0367 71.17869999999999
9.7444 2.1513 69.5369
3.0663 4.4309 70.13080000000001
2.9617999999999998 4.4943 70.2898
8.6294 3.5147999999999997 71.03829999999999
8.5266 3.3654 70.9974
8.171100000000001 3.1317 71.1411
9.3057 1.3068 69.71300000000001
2.9436 4.1579999999999995 70.1652
3.1036 4.3587 69.9975
7.9829 2.6584 71.014
8.0395 2.6193 71.1524
8.0534 2.9371 70.8848
3.1271 4.6134 69.62469999999999
2.9443 4.0812 69.8617
9.554400000000001 3.7476000000000003 70.48830000000001
9.3791 3.5591 70.3154
9.542200000000001 3.6656 70.34479999999999
3.1386 5.1831000000000005 70.8169
2.8107 4.9115 70.7581
2.8409 4.4799999999999995 70.4189
2.4619999999999997 4.4087000000000005 70.7227
2.9152 4.825200000000001 70.63810000000001
2.8222 5.1823 71.0895
2.3043 4.8567 71.3063
2.4341999999999997 4.7022 71.0577
2.7896 5.0523 70.9742
2.9295 4.584499999999999 70.3939
3.7001 5.2567 71.1999
1.6883 5.9952 70.4682
6.8881 5.2288 72.4908
1.6594000000000002 6.2383 70.08879999999999
0.7073 5.9561 70.2483
2.6303 6.2277 70.11359999999999
2.8243 6.1326 69.9614
3.1559999999999997 5.5102 69.2113
2.8928 6.438000000000001 69.3074
3.0018 6.621199999999999 69.05930000000001
2.9657 6.4012 69.3637
9.0902 5.6361 72.17869999999999
2.8162 6.656 69.0361
3.1697 6.233099999999999 69.07
3.0917 6.0516 69.45320000000001
8.7515 5.6365 72.3146
2.6544000000000003 5.982 70.5766
2.2956 5.5077 71.4893
3.9301000000000004 5.4708 71.5406
3.0552 5.8122 70.16940000000001
4.9323 5.2873 71.7157
8.307 5.6417 72.423
8.222 5.5998 72.2542
9.7357 5.5705 72.3005
6.8832 4.884 72.03399999999999
8.3408 5.2883 72.05080000000001
8.4466 5.7295 72.3233
7.1953000000000005 5.2425 72.024
8.888 5.6864 72.17360000000001
9.471499999999999 5.478899999999999 71.1303
8.5791 5.5247 72.5982
8.7822 5.4894 72.6326
8.7921 4.971699999999999 73.40480000000001
8.1778 5.258 72.9421
9.800699999999999 4.9266 70.6615
9.411999999999999 3.8182 70.5807
9.574399999999999 5.0857 73.55709999999999
8.3051 5.4851 72.67
2.3607 5.8422 70.8745
1.1906999999999999 5.3873 71.3356
1.4319 4.7151 72.0437
0.2248 4.2237 72.5576
2.8283 6.0538 70.3947
2.3131 6.0074000000000005 70.66329999999999
2.3382 6.5257 69.63329999999999
2.3815 6.409199999999999 69.7848
1.4626000000000001 6.445399999999999 69.7195
2.2763 6.9556000000000004 69.015
2.4756 6.8649000000000004 69.1581
2.4325 6.9397 69.0655
2.4638 6.797499999999999 69.26689999999999
1.9924000000000002 7.016799999999999 68.78659999999999
2.1949 7.2922 68.33590000000001
2.5261 6.9716000000000005 68.9699
2.41 7.0166 68.9399
2.4027 7.1283 68.62899999999999
2.2159999999999997 7.1379 68.6056
2.5904 7.1352 68.5715
2.2603999999999997 7.0729 68.7515
2.4699999999999998 7.198599999999999 68.4866
2.6214 7.3135 68.234
2.0787 6.8593 69.1002
2.2954 7.0264999999999995 68.8804
2.5641000000000003 6.8117 69.1835
2.5832 6.8748000000000005 69.05630000000001
2.6672000000000002 6.7495 69.1226
2.7567999999999997 7.0095 68.81819999999999
3.5775 7.0578 68.42099999999999
8.4005 7.659199999999999 68.3299
3.4334999999999996 5.8928 68.47149999999999
2.6109 7.2117 68.40990000000001
2.8754 7.2513 68.5128
2.7917 7.276299999999999 68.3565
2.8979999999999997 7.1618 68.6575
3.0658000000000003 7.1849 68.6777
3.091 7.3898 68.4623
8.815900000000001 7.8353 68.4534
3.2362 7.3809 68.4748
2.9981 7.2905 68.5715
9.0459 7.7332 68.6229
9.1829 7.6906 68.7335
8.854099999999999 7.8801 68.2986
9.443999999999999 7.7643 68.6827
9.3063 7.063899999999999 68.7439
8.9423 7.8333 68.3724
8.8212 7.596 68.7179
9.293800000000001 7.318 68.8841
9.3895 7.6738 68.9038
9.258 7.549500000000001 68.9346
9.589 6.5846 70.2341
9.134599999999999 7.602200000000001 68.9002
9.309099999999999 7.457 69.0092
9.177 7.4496 68.92200000000001
9.3187 6.937200000000001 68.6832
9.4493 6.7155000000000005 68.6782
9.508999999999999 6.5511 68.6289
9.499 6.9298 68.8742
9.4744 7.0222999999999995 68.9198
9.5495 7.1129999999999995 69.4108
9.5552 6.9524 69.3426
9.470099999999999 7.1012 69.0476
9.4897 7.714799999999999 68.821
9.8609 6.3854999999999995 70.9499
9.9913 7.1968000000000005 69.585
9.640799999999999 6.393 68.9314
9.7149 6.1532 69.4579
9.4419 6.4405 68.4982
9.5384 6.4219 68.608
9.3458 7.735200000000001 68.7786
9.491299999999999 7.646 68.9755
9.3368 7.5912 69.0386
9.2072 7.8588000000000005 68.4271
9.293 7.8017 68.6295
10.7155 6.979399999999999 70.2247
9.5603 7.2216000000000005 69.22070000000001
9.648 7.226100000000001 69.39070000000001
9.4821 7.5554 69.0788
9.8 7.223400000000001 69.4651
9.7333 6.223 71.1544
9.6121 6.1297 70.86630000000001
9.9169 6.4545 70.87299999999999
9.773 6.4662999999999995 70.8565
9.6806 6.4013 70.9241
9.655800000000001 6.4907 70.81190000000001
9.9154 6.2426 71.192
9.610000000000001 6.4978 69.8244
9.665600000000001 6.6850000000000005 69.9304
9.5997 6.8579 69.8129
9.6348 5.5943 71.0804
10.107099999999999 6.412800000000001 70.98410000000001
9.6861 5.8244 70.50070000000001
9.5973 6.2424 70.7341
9.6843 6.0856 71.1318
9.5913 5.8368 71.2336
9.8035 6.3202 71.05019999999999
9.7191 5.7391 71.0978
10.0711 6.2081 71.265
9.3923 5.942200000000001 71.7557
10.3414 6.1882 71.422
10.0025 6.1616 71.32849999999999
9.6003 6.646599999999999 69.3303
9.5835 6.8638 70.0506
9.77 6.6162 70.5894
9.2988 5.761299999999999 71.443
9.6189 6.3734 70.2838
9.6588 6.3017 71.0267
9.5594 5.5892 72.2975
9.8318 6.1339999999999995 71.4015
9.966700000000001 6.0737 71.4479
9.5615 7.079000000000001 69.5836
9.6327 6.689 70.1122
9.607899999999999 6.8426 69.6129
9.351099999999999 5.643 72.00710000000001
9.5786 6.750399999999999 70.22070000000001
9.5706 6.6732 70.3585
9.6395 6.751799999999999 70.33470000000001
9.1596 5.8368 71.5878
8.6894 5.800000000000001 72.16669999999999
9.604600000000001 6.502 70.6846
9.6023 6.053299999999999 71.5683
9.3802 5.5721 72.28999999999999
9.209399999999999 5.7860000000000005 71.9726
9.2746 5.5811 72.1572
9.2828 5.6171 71.39229999999999
9.000900000000001 5.7407 72.0069
8.586 5.7579 72.2602
8.9064 5.9319999999999995 72.00659999999999
8.984300000000001 5.9641 71.8692
8.497200000000001 5.6034 72.4626
8.6794 5.5607999999999995 72.4757
8.8755 5.4193999999999996 72.8531
9.0741 5.5467 72.46470000000001
9.4553 5.5356000000000005 72.4181
9.1929 5.5669 72.3274
9.3241 5.4125 72.8188
9.757200000000001 5.6552999999999995 72.02690000000001
9.4789 5.4363 72.733
9.546100000000001 5.8607 71.8422
10.1995 5.412100000000001 72.572
10.0602 5.4523 72.5098
8.9841 5.6043 72.3313
9.851600000000001 5.6662 71.9257
9.4651 5.5937 72.13770000000001
9.3819 5.8047 71.9044
9.3192 5.9155 71.4796
9.7273 5.7715000000000005 71.8792
9.2615 5.485 71.3564
10.6611 5.4892 72.5052
10.414 5.5048 71.8261
9.4835 5.9708 71.3805
9.4125 5.8424 71.3503
9.4078 5.713900000000001 71.2965
9.5163 4.8445 70.9084
9.973799999999999 5.8411 71.6983
9.8942 5.7381 71.8201
9.6105 5.1627 70.917
9.6655 4.9855 70.8341
9.3708 5.337 72.942
9.6472 5.546 72.4661
9.6373 5.4508 72.6408
9.6327 5.3748 72.79759999999999
10.1082 5.5622 71.8194
10.8389 5.289 73.2971
10.8682 5.2332 73.7479
11.0669 5.326899999999999 73.56230000000001
10.9366 5.3035 73.6011
10.681799999999999 5.142 73.5316
10.8069 5.3283 73.0831
10.5916 5.2933 73.0339
10.7275 5.2716 73.258
10.7582 5.251 73.4239
9.841099999999999 4.0558 70.2514
11.086 5.4073 73.2713
10.4753 5.1709 73.2858
11.6989 5.226 74.1322
10.011000000000001 5.1233 73.4147
9.8147 5.2305 73.04929999999999
9.4144 5.2496 73.09440000000001
9.4933 5.2837000000000005 72.9889
10.1934 5.4092 72.7715
10.1501 5.2301 73.0986
9.929499999999999 5.297000000000001 72.9444
9.9389 5.1743 73.1649
10.0494 5.1748 73.178
10.315100000000001 5.2027 73.1955
9.135200000000001 5.2954 73.0851
8.793199999999999 5.4501 72.775
9.9849 5.2253 73.0759
9.023 5.3999 72.89320000000001
8.9153 5.374700000000001 72.95779999999999
10.0527 5.3482 72.8582
8.759500000000001 5.4141 72.87740000000001
9.2193 5.3729 72.9382
9.3172 5.4752 72.6631
9.368500000000001 5.5632 71.261
10.0565 5.2782 72.987
9.7937 5.4734 72.5533
9.4798 5.4963 72.5747
9.1318 5.458699999999999 72.7555
8.9261 5.4483 72.7527
9.1761 5.5091 72.577
8.9916 5.498 72.6096
9.6703 4.7488 70.7638
9.4695 4.689299999999999 70.854
8.813600000000001 3.8171999999999997 71.39659999999999
8.855599999999999 4.0247 71.3888
9.4224 4.554600000000001 70.825
8.8631 5.2543 71.7058
9.7669 5.4588 70.9106
9.8094 5.5334 72.4185
9.7755 6.0852 70.0477
9.8177 5.0984 70.5509
9.3506 4.3064 70.8646
9.4128 4.4184 70.7945
10.2377 5.3754 72.07430000000001
10.2033 5.4038 72.3611
10.009 3.0196 69.5628
9.850100000000001 3.6821 70.0909
9.924 5.420599999999999 72.6153
10.4644 5.369 72.2364
10.4503 5.356000000000001 72.52680000000001
11.2987 5.1207 74.2707
11.3953 5.1577 74.1471
9.7258 3.5450000000000004 70.1465
11.0039 5.0863 74.2003
11.1497 5.0538 74.3292
10.8162 5.122800000000001 73.8509
10.4955 5.1014 73.4723
10.6148 5.065 73.6424
11.4272 4.6068999999999996 74.8138
10.634 4.7308 74.30330000000001
10.502 4.9919 73.8965
10.1671 5.154 73.2482
8.999699999999999 3.9293 71.0974
10.952399999999999 5.224 73.922
11.0564 5.1723 74.0694
11.3216 5.0179 74.4485
11.4471 4.9642 74.565
11.4543 5.0921 74.3185
11.4826 4.9110000000000005 74.6723
8.5829 1.8925999999999998 71.9853
11.013100000000001 4.9455 74.26700000000001
11.698400000000001 4.4558 75.0508
11.7789 4.5875 74.994
11.582099999999999 4.9674000000000005 74.6004
11.897 5.0575 74.6036
11.7022 4.9844 74.6259
12.168099999999999 4.9873 74.68939999999999
12.1433 4.8631 74.9217
11.8133 4.8717999999999995 74.8596
12.0089 4.762700000000001 75.0474
11.968 4.8483 74.9195
11.985700000000001 4.964799999999999 74.75460000000001
11.6549 4.7176 74.8832
8.791699999999999 1.407 70.3647
12.3182 4.2423 75.5941
11.8526 4.7571 74.98519999999999
11.8681 5.6551 73.0844
11.8812 4.4954 75.0992
12.1278 4.2968 75.4315
10.0185 3.4623 69.65249999999999
10.0184 3.3127999999999997 69.7965
10.0297 2.513 69.31960000000001
9.7027 3.6479999999999997 70.2551
9.8965 3.8118 69.0536
9.0576 3.7243 70.6841
8.920200000000001 3.6153999999999997 70.6565
9.9148 3.5559 69.9828
9.7027 3.4135999999999997 70.092
9.9343 3.2311 69.0
9.5693 1.1684 69.3959
9.9621 2.1221 69.3374
10.0175 3.0796 69.708
10.0037 3.4543 69.8571
9.9954 1.8218 68.7217
9.977500000000001 2.6337 68.9513
9.968 2.1731 69.1746
9.9909 2.109 68.9795
9.7705 4.6424 69.5051
9.8551 4.186100000000001 69.6472
8.9254 3.0128 70.2687
9.5099 4.0552 70.556
9.524199999999999 3.9024 70.5347
9.946299999999999 3.7551 69.858
9.58 3.451 70.1837
8.409899999999999 2.2121 70.65350000000001
9.4809 3.3479 70.16029999999999
9.5916 3.9985 70.4739
9.0693 3.9301000000000004 70.93199999999999
9.2206 4.2245 71.0225
9.172600000000001 3.9859 70.9308
9.2798 4.19 70.92739999999999
9.5415 4.5937 70.74279999999999
9.0424 3.8635 70.8023
8.9226 3.7308 70.80149999999999
9.628200000000001 3.8832 70.4261
9.8702 3.9382 70.1434
9.761899999999999 3.8988 70.3085
9.8612 4.0777 70.0802
9.8167 4.1938 70.3567
9.7988 4.3072 70.2003
9.8359 4.1991 70.1314
9.4824 4.3938 70.67569999999999
9.7868 3.7838 70.2045
9.7554 5.5812 69.9619
9.1497 3.8425000000000002 70.6922
9.5581 4.492 70.6695
9.8171 4.7493 70.5299
9.8499 4.9692 70.4214
9.6386 4.3965 70.5964
9.4722 4.4968 70.7409
9.7293 4.5527 70.6097
9.741 4.2806 70.5112
9.726899999999999 4.0216 70.4034
9.67 3.7463 70.36059999999999
9.5299 4.2385 70.59349999999999
9.21 3.7512 70.5553
9.415 4.2717 70.73
8.9517 3.8468 71.2568
9.0687 4.0673 71.1437
8.8484 3.8125 71.08959999999999
9.117799999999999 4.0095 71.0376
9.114600000000001 4.595 71.27250000000001
9.371400000000001 4.6104 70.92150000000001
8.9858 3.3181000000000003 70.42439999999999
9.5045 4.9986999999999995 70.9323
9.4193 4.8968 70.9987
9.386700000000001 4.7416 70.97409999999999
8.6589 3.8309999999999995 71.5264
8.7399 3.6504000000000003 71.4275
8.5409 3.1940999999999997 70.8549
8.429499999999999 3.0827 70.7688
8.7865 3.6296000000000004 71.0561
8.616200000000001 -0.8177 69.4521
8.5932 1.2683 70.60889999999999
8.525 3.4492000000000003 71.1892
8.4827 3.543 71.6439
8.6858 3.2249 70.7159
9.3376 3.4267 70.2415
8.6049 0.6193 70.712
8.8706 3.2817 70.5318
9.4939 1.4113 69.5624
9.2127 3.3826 70.2457
9.008199999999999 3.2193 70.2923
9.1188 3.3463 70.3282
9.1404 3.2734 70.215
8.6744 2.1003000000000003 70.4918
8.8337 -0.765 69.3751
8.6875 -0.8662 69.64099999999999
8.9445 -0.6091 69.0258
8.5244 -0.8331 69.2747
8.6907 -0.7656 69.3414
8.6584 -0.7603000000000001 69.1695
9.2269 -0.3085 69.1906
8.8046 -0.6774 69.1075
8.6369 -0.7444000000000001 68.9999
9.3127 -0.46499999999999997 69.0751
9.7575 0.2917 68.7013
8.7784 -0.6726 68.9315
9.345699999999999 -0.38730000000000003 68.697
9.28 -0.5284 68.9567
8.7063 -0.2968 68.3951
8.7827 -0.6467999999999999 68.8129
9.0364 -0.5162 68.5962
9.3687 -0.4621 68.8566
8.891499999999999 -0.5959 68.7233
9.0814 -0.4394 68.4277
9.2053 -0.4436 68.5376
9.6969 1.0611000000000002 68.9383
9.658700000000001 0.6803 68.9783
9.192400000000001 -0.3861 68.3136
9.6153 -0.3543 68.68570000000001
9.8645 -0.0926 68.5964
9.2271 -0.4599 68.78
9.071 -0.5355000000000001 68.8797
9.9117 1.4532 68.9254
9.7817 1.2673 68.90690000000001
9.701600000000001 1.4201 69.0505
9.8771 1.0967 68.80420000000001
10.045 1.6298 68.4121
10.1012 1.485 68.80669999999999
9.9176 1.8387 69.1554
9.9526 2.4311 68.7029
10.0802 1.2792 68.1223
10.1524 0.9492 68.40509999999999
9.9156 0.9381 68.7367
10.0688 0.9803 68.6134
9.9885 1.2916 68.774
10.0231 1.1358 68.6855
10.1184 1.1267 68.5171
10.065399999999999 0.6804 68.4513
10.067 0.5501 68.39450000000001
10.081199999999999 1.2793999999999999 68.6075
9.9728 0.703 68.5491
9.937999999999999 0.812 68.6287
9.8889 -0.1369 68.3526
9.3599 -0.3609 68.4597
9.6417 -0.3247 68.8199
9.838099999999999 -0.2184 68.5921
9.802 -0.1874 68.4593
9.8931 -0.10339999999999999 68.4661
12.6663 4.7526 75.1659
12.9258 4.6672 75.431
12.8276 4.7212 75.2654
12.5844 4.7177 75.2578
12.3066 4.972 74.6479
13.6439 4.4171000000000005 76.00919999999999
12.9059 4.5725 75.5406
13.2487 4.4462 75.8547
12.5719 4.6313 75.4143
12.7703 4.5001 75.646
12.6416 4.5484 75.55579999999999
12.7358 4.5986 75.4845
12.851199999999999 4.427 75.77709999999999
13.106699999999998 4.4624999999999995 75.7796
12.225800000000001 4.4411 75.45230000000001
12.3153 4.891100000000001 74.8267
12.3689 4.6082 75.43570000000001
12.526599999999998 4.5318 75.5455
12.823 4.1513 75.9479
12.030299999999999 4.4216 75.2583
12.4627 4.8353 74.91210000000001
12.1588 4.7379999999999995 75.134
12.3407 4.7889 75.05579999999999
12.1738 4.603199999999999 75.29
13.3587 4.4056999999999995 75.91290000000001
13.5435 4.3609 76.08970000000001
13.8215 4.3221 76.0827
13.4049 4.365 76.0269
13.2432 4.2476 76.21759999999999
13.8841 4.218999999999999 76.1919
14.0677 4.3165000000000004 76.1788
14.0021 4.2008 76.2875
3.044 3.0661 68.7298
-0.2235 8.8161 65.1618
4.4767 9.9225 63.6969
4.5377 9.909600000000001 63.8275
0.6715 9.0215 65.2997
8.9778 -0.3932 69.4503
9.0396 -0.5508 69.3434
-1.6771999999999998 9.8165 63.207800000000006
-1.5500999999999998 9.9041 63.1105
-1.641 10.0087 62.9644
-1.3908 10.0569 63.0563
-0.4624 9.1437 64.58840000000001
-0.629 9.154 64.5565
3.8469999999999995 10.1146 63.24530000000001
3.9751000000000003 10.0337 63.41
-0.2812 8.6193 65.4272
0.030899999999999997 9.366900000000001 64.5143
8.6511 9.4265 65.4575
9.180000000000001 9.2103 65.9663
9.0629 9.161 66.038
0.9008 9.000900000000001 65.3116
1.0307 8.9156 65.3742
0.8814000000000001 8.9542 65.4462
7.0632 9.138 65.9458
7.1365 9.2124 65.7625
-1.2101000000000002 9.9899 63.259699999999995
-1.0488000000000002 10.2507 62.9421
2.5149 9.6343 64.1622
-0.0583 10.223500000000001 62.4892
0.5279 10.073400000000001 62.92100000000001
-1.5083 10.290199999999999 62.804899999999996
7.634499999999999 9.9215 64.2396
8.4136 9.4911 65.4459
8.5403 9.489 65.4173
4.3926 9.8995 63.8282
4.2983 9.9252 63.6873
6.0842 10.0472 63.6321
6.4455 9.1392 65.72919999999999
6.5717 9.278400000000001 65.48429999999999
6.693200000000001 9.186 65.6871
5.6636 8.0983 67.4492
5.7248 8.0151 67.5264
9.4096 7.8694 68.29610000000001
5.864599999999999 7.9656 67.5343
5.8276 8.0835 67.458
4.743399999999999 8.3291 66.93719999999999
4.8546 1.2069 64.9123
5.0583 1.1721000000000001 64.97800000000001
9.9527 1.7185 66.777
9.9216 1.9997 67.3559
9.9585 1.7329 67.2371
8.3356 3.5180000000000002 66.0446
8.774700000000001 3.3873 66.26570000000001
8.540000000000001 3.0675 65.8344
9.9308 1.5289000000000001 66.03179999999999
9.8834 1.6320999999999999 65.9951
9.9306 1.5926 66.1366
9.7196 1.4649 65.7443
8.4983 5.974 67.48140000000001
8.1721 6.0202 67.3134
9.6311 4.6932 67.6163
9.5058 4.8299 67.58070000000001
9.964599999999999 0.9904 66.6897
9.9831 1.2065 66.62209999999999
3.517 4.3144 68.0503
3.2885999999999997 4.2309 68.5751
3.4152 4.5025 68.1125
3.8684999999999996 -0.2255 67.68039999999999
4.6644 -0.9624 69.0726
4.765 -0.8571000000000001 69.1245
8.065700000000001 2.7470000000000003 71.25359999999999
8.1881 2.7348 71.3721
8.0816 2.662 71.782
5.5484 7.5308 67.3147
5.671600000000001 7.5763 67.3599
3.2374 3.0486 68.0006
3.0334 2.9603 68.4121
3.2462999999999997 3.1919000000000004 68.375
