ply
format ascii 1.0
element vertex 698
property double x
property double y
property double z
property uchar red
property uchar green
property uchar blue
end_header
-0.0634710981124581 0.0709847648163309 0.9547125837169883 86 156 96
0.3925297533743410 -0.2907680592330207 1.1748311677652792 192 207 202
0.0844486914049877 -0.1166116818804115 0.9939071411927051 209 210 205
0.0836249077681560 -0.3324249330697338 1.2365736403711984 187 196 193
0.0821957284551653 -0.2931936785732161 1.2156224747807900 114 102 90
0.3696111614129097 -0.1635176413134084 1.1861100783907328 95 149 71
0.1231877535684969 -0.0985421527693690 1.0037488087454427 157 62 70
-0.1434590613877267 -0.0550432429295897 1.0217043823049266 166 189 143
0.1734535894769779 -0.3242294538068923 1.2049985424426413 29 25 22
-0.1165276553547838 -0.1057712666881899 1.0548339684530132 57 70 52
-0.1783964408897221 -0.2185379156948374 1.0998035104761210 186 189 172
0.4698417920180352 -0.3339673562591527 1.3219280957668063 226 230 229
0.4185019127135325 -0.1842656677612278 1.1189739162759722 198 205 198
0.4001833322949803 -0.2137784521635499 1.1296086760063968 142 146 131
0.3772635915554519 -0.2969024868421570 1.1808165564179198 213 228 221
0.0772074913989034 -0.0718394353444922 0.9754220007622553 81 81 79
0.1539346039768974 -0.0587462510582688 0.9749706582300495 215 222 215
0.3677447535986266 -0.1448878394490546 1.1812259564758254 40 84 25
-0.1314914724464738 0.0827651205437580 0.9669114395530684 141 23 47
-0.1565595579711600 -0.1653132854110951 1.0667170186327526 57 171 197
-0.1559814167472130 0.1807909709915792 0.9742711871109239 52 37 32
0.7152357124201604 0.0970133926817810 1.6281570812625894 32 69 26
-0.1103618772780497 -0.2383912948359635 1.1105350433196790 110 199 213
-0.1192857914183199 -0.2358064797641430 1.1068915657969001 117 194 204
-0.1660049624517688 -0.2323120125994811 1.0933413890664285 87 176 184
-0.1398136156101810 -0.1070525306888658 1.0450797022884202 201 69 118
-0.0199725714904058 -0.2307111885750281 1.1253513344075996 89 178 194
-0.1688544296407689 -0.3205404930081147 1.2180349141440614 66 41 34
0.1293837593312411 -0.4059952742433069 1.2713346816361391 191 201 193
-0.1080850977702707 0.0652135987029725 0.9795161384314468 49 148 179
-0.1513625871179926 -0.2210339356094603 1.0920301760295981 88 179 197
0.1185665805659469 -0.0939229351498983 0.9871942328102650 240 69 75
0.3882060475421661 -0.3491440738986096 1.1838124142250677 189 202 195
0.0883189836062676 -0.0638648835333493 0.9727609084441625 215 217 216
0.0830193246091776 0.0064747846458372 0.9433657793869968 23 24 18
0.0769170514770201 0.0073379892262738 0.9426980993817076 25 24 19
0.1353441590338220 -0.0554206476623484 0.9724631989889290 213 214 208
-0.0203657929823680 -0.3619869862084594 1.2464016178519817 180 186 176
0.4108634604443627 -0.1874179732914674 1.1240571280006748 104 99 70
-0.1519483566134219 -0.2383084606813715 1.0957853792663783 101 178 184
0.2463195591195226 -0.1354804560225698 1.1631331756750143 77 65 17
0.2376361798681960 -0.3134674338235486 1.1194748763710984 89 135 70
0.2936435954830590 -0.2356454793768827 1.1020459974581351 197 34 27
0.0129509353235080 0.0726713690918378 0.8654687919713476 27 63 113
0.5170130381784498 0.0179479329000131 0.8326077545004736 122 150 73
0.0746776428960331 -0.1057728348383467 0.9883914099133192 28 32 31
1.0668895183986475 0.6115570513325794 1.6067724339672973 134 123 127
1.0668895183986475 0.6115570513325794 1.6067724339672973 134 123 127
1.1194726798252943 0.5950052804552119 1.7231583640373676 89 74 77
0.3652154468839546 0.0799657470186730 0.7334060746888940 138 138 138
0.1197402613318638 -0.1897526125271788 1.1409574611584778 224 183 197
0.3560643533804690 0.0599805859126595 0.9005929031432147 121 137 127
-0.0953800392736859 -0.0727999488742582 1.0131352053858664 40 65 46
0.5298988333477248 -0.2048323330507757 1.1718161173059913 207 209 206
0.5298988333477248 -0.2048323330507757 1.1718161173059913 207 209 206
0.2812942747288518 0.0841520836245255 0.7309335569464206 129 131 130
0.4321907755557148 -0.0132468350294215 0.8439679567386071 107 170 79
1.2686656087843464 0.5584117521437403 2.0062458830796541 92 85 92
0.2812942747288518 0.0841520836245255 0.7309335569464206 129 131 130
0.2234965753533958 -0.0228647586293430 1.1372396134077782 118 165 93
0.0250141983312950 -0.2408337216142922 1.1712459898418508 76 190 226
0.4951044276023728 -0.2324277344406877 1.1728529301207629 204 210 206
1.2122368698780774 0.5721214380316496 1.8401032784243265 73 65 63
0.0302430571431405 -0.1819417862314293 1.1215292510306087 79 178 217
1.1939030045630632 0.5780163204528092 1.8249324100995141 96 93 104
-0.1102017315018620 -0.1847205881413646 1.0857043972262415 89 182 199
1.1937242361049516 0.5778805232277637 1.8252495643609534 99 92 100
1.1663922350388589 0.5794618768487856 1.8170444131061898 90 92 89
0.5337201410081230 -0.2113794398951961 1.1847284915137659 214 214 216
0.5386858998443219 -0.0412745722730637 1.0970206297866394 188 189 181
0.3775057496319173 -0.3148710397846295 1.1841274434125637 223 239 236
0.1072674638723261 -0.2046380525515607 1.1449892887459032 236 116 162
1.1199408056760971 0.5978910953590074 1.6648722253663863 88 67 72
0.0257574211797039 -0.0779575995511730 0.9737065418699637 135 80 49
0.2502978735127647 -0.3134697115026494 1.1053840834160411 115 163 87
1.0274510756358122 0.6042211174813745 1.5878842463540659 134 125 126
0.5012243335839274 0.1765680387785153 1.2607483869173934 118 123 117
0.4941022891030236 -0.0369690803906850 1.1031629319341623 178 185 178
0.5035434268701096 -0.0268295508849526 1.0958443274628480 195 197 194
1.0965880329168225 0.6044100018720926 1.6617221180573112 85 65 66
0.2650212791433653 0.0157935652235345 1.1425859120850355 115 173 88
1.0712205541215605 0.6137311664512842 1.5303698111172799 121 111 112
1.0891462910496601 0.6032070523660902 1.6436258873326848 126 115 119
0.1923435063750717 -0.2700435139581528 1.1895058704017791 36 42 28
0.4059304792158647 0.0459118921271851 0.8435825908057086 98 115 47
0.2109834878433657 -0.2859269460486257 1.1408531120570005 35 52 18
0.1478346097083388 0.0518545728129855 0.8717078838703181 74 95 4
1.0256735280100495 0.6363785897368639 1.5428639527205086 121 115 117
-0.1221178661463549 0.0457332111246328 0.9856458619693711 135 155 164
0.3721616540195780 -0.2761080535266601 1.1832650335795916 136 155 136
0.3721616540195780 -0.2761080535266601 1.1832650335795916 136 155 136
1.2026525815993436 0.5820811166022286 1.7895041415975910 71 68 75
1.0455467042747082 0.6192882994550886 1.5104072518706861 106 96 97
-0.0482472781958940 0.1137823349653269 0.7672706882557726 8 8 8
1.0945975583751602 0.5883137525027839 1.7848797512973189 93 89 88
-0.0166750070325328 -0.2515531924595838 1.1358989519215041 108 200 213
1.1242123190020052 0.6045528891219870 1.6406239501883131 92 73 75
1.1242123190020052 0.6045528891219870 1.6406239501883131 92 73 75
0.0141111320843064 -0.1890409659193657 1.1147075010837089 228 100 148
0.2329800695785037 -0.1462089408935239 1.1736776965148288 19 25 11
-0.0370924304666810 0.0966972835390126 0.8595390649895323 31 72 58
0.5078333695654634 -0.2022541885340238 1.1577525348966378 199 204 200
0.4945830458760538 -0.1533199614876974 1.1455789439890112 210 206 197
-0.0162352705719759 0.0765559502780696 0.8713936630537642 161 194 225
0.5279643550524667 0.0849012461744389 0.8393833797019584 62 58 59
0.0725397549739055 -0.1302010085489448 1.0050514610153047 149 95 57
-0.1097555053274309 -0.2385119905428521 1.1073303678053763 83 184 202
1.0470017276874179 0.6138424011569338 1.5984444791171259 94 79 82
0.2217568378350704 0.0673659073006330 0.7900883790734490 22 71 49
0.3255091371236035 0.0643830457414356 0.9505522922449223 130 133 122
0.2459428154312732 -0.2423569802123637 1.1296733075184962 204 25 29
0.0775151049965699 0.0813634621191866 0.8384564283008432 103 113 112
1.0081125459791209 0.6283525360689542 1.4580664411469222 124 120 121
-0.1344345249632297 0.1104702275090191 0.8027478819315567 57 58 52
0.1797596541623873 0.0621464219267901 0.9293042665629221 223 209 78
-0.0014708577002420 0.0942344111498723 0.8433022114849243 32 62 52
-0.0885960259314211 0.1055745904992464 0.8011415384600701 21 26 29
0.5465855261637421 -0.1273305253387127 1.1409691329551772 216 218 217
-0.0897848135021969 0.1079887689170663 0.8035930558023904 21 26 29
1.1274584556911218 0.5971553334385559 1.7108263248322564 121 112 117
0.0422596225602394 -0.1188600391614019 0.9931293459020605 224 216 214
0.1322255241377502 -0.1488587967210271 1.0906855447719752 57 72 65
1.1288650016065560 0.5999676629859133 1.6958206787797174 123 111 113
0.0422596225602394 -0.1188600391614019 0.9931293459020605 224 216 214
0.2246553392950418 -0.1576621436387506 0.9401679491349770 120 177 96
0.2516978692255157 -0.1777560162393489 0.9729273746178392 148 217 124
0.0063954602215711 -0.1178248638637122 0.9867423154151791 99 55 30
0.9683720190872497 0.6265794283405874 1.4998830964402650 122 117 123
0.2731673018756698 -0.1513766026086374 0.9406328329381349 97 171 76
0.3184148838831232 0.0627160413610835 0.9169850444005143 140 145 141
0.5152992243258009 -0.3905979619159141 1.2737900030882343 187 196 193
0.1289685353598430 0.0671608158481817 0.8334154128295813 34 64 52
-0.1589834079289284 -0.3478821040610561 1.2327186181727767 159 151 149
-0.1410288625590088 -0.0128144023706841 1.0001018636807064 194 98 125
-0.0815925093728536 -0.1313286395789213 1.1402752724079102 218 90 139
0.4480144085056958 0.0718047778027588 0.7661968139309528 166 168 163
-0.1412490951074738 -0.1205729668577906 1.0506978030231942 203 62 115
0.5278568818069113 0.0822700978890677 0.7724809241845194 128 128 126
0.1013704841900617 -0.1088133186971576 0.9917523657793400 15 12 19
0.1020638610825697 -0.1096672729540003 0.9904400711224418 15 12 19
-0.1412490951074738 -0.1205729668577906 1.0506978030231942 203 62 115
1.1197660459691448 0.5991257415589013 1.6529134176095654 135 124 128
1.1197660459691448 0.5991257415589013 1.6529134176095654 135 124 128
-0.1065996896117216 -0.1409968242469476 1.0687412207972020 138 176 187
0.2538497330231029 -0.1731904634272216 0.9661328338076365 149 216 121
0.0060238651611133 0.0932823205093083 0.8278766069791073 25 64 45
0.3924590100093701 0.0760236716396790 0.7458045846493083 138 140 139
0.1524194998180547 -0.3595106744840504 1.1919604881611352 163 165 160
-0.7350213013518928 0.7830935290158975 1.5545723857544389 24 17 11
0.3124046813267660 -0.4204731765096338 1.2016363950252211 207 221 221
0.1622762300669414 -0.1402827061860391 1.0113318413136982 252 43 48
0.1629332214078950 0.0831699105435486 0.7387149836042527 27 63 59
0.0081812751356346 0.0640039951229197 0.8717505713988235 80 68 44
0.4320418958390545 -0.1455988388810501 1.1253394563331574 59 75 26
1.0451530463251231 0.6201900318741342 1.4988671366503110 122 113 118
0.0990195958111085 -0.3117054690105020 1.2079546764520410 105 95 86
0.2995277830974984 -0.4047660670051421 1.2108918308966343 125 132 116
0.0990195958111085 -0.3117054690105020 1.2079546764520410 105 95 86
-0.0927108294143527 0.1072846758108857 0.7912875057982902 24 28 31
-0.0927108294143527 0.1072846758108857 0.7912875057982902 24 28 31
1.2173199102786405 0.5635024255344161 1.9906838585819366 64 62 63
0.0171206688028763 -0.0838559498046219 0.9775933316263512 87 41 18
0.2497398911266171 -0.0149098998888752 1.1330855611471271 120 174 96
0.4380773659091027 0.0730102144033854 0.7685916031936832 162 166 152
0.1091689369902815 -0.2888551018337346 1.2059921918543939 137 133 124
0.0290956459271680 0.0099949064255515 0.9446491514608251 96 52 25
1.2145879080031448 0.5670911423904259 1.9446641477853657 84 85 87
0.4495051134325407 0.0728942057449547 0.7592442324328261 145 143 144
0.3168523641994905 -0.5185172461261729 0.8052629648573415 59 47 49
0.4337122339418940 0.0720901437591524 0.7567565662399617 145 145 147
-0.1498897626546242 -0.0224272114250191 1.0086411010709069 22 99 119
0.4535697803099362 -0.2916327279444393 1.1979468917752683 127 102 95
0.4535697803099362 -0.2916327279444393 1.1979468917752683 127 102 95
1.0275520153776379 0.6313833430145306 1.3797680508106476 120 118 121
0.3980721545041837 0.0729660803674211 0.7483332959227063 162 173 167
0.3396196429176604 -0.4213215302360673 1.1945698829894433 215 229 230
-0.0396904559083385 0.1172732139273981 0.7780480777207859 14 14 14
0.3055136917588921 -0.4005144541103300 1.2117023135260121 136 140 125
-0.1753223800926258 -0.3472128162466284 1.2511451810203238 73 56 48
0.3054313141126452 0.0587509948427168 1.0070032555049753 128 134 124
0.3504677912614711 -0.3840314334648410 1.1910339491246325 149 157 144
0.3054313141126452 0.0587509948427168 1.0070032555049753 128 134 124
0.0283850603765126 -0.3470783523166003 1.2407324386888845 176 178 173
0.0218772163121674 -0.3284052959457716 1.2286880642671119 66 59 51
0.2955947746475089 -0.3484022005472250 1.1955020696148118 52 77 81
0.2956831550095795 -0.3482462633606415 1.1959309930526674 52 77 81
0.3324067757668916 0.0579424052578138 0.7159397153292180 144 144 146
0.2862640765728515 0.0623612786389640 0.9648534836164789 143 151 140
0.3702049006956161 0.0802243888349717 0.7301862988361372 171 180 175
0.3159750106160923 0.0639409114524800 0.9481001004128459 149 151 148
0.4038501747107617 -0.0012639955263739 0.8592222814304559 97 157 61
1.1066431550166600 0.5923957671179411 1.6798268324966226 101 82 84
0.2962664535795388 0.0633456616122824 0.9175539658550124 128 135 127
-0.0605622295665176 -0.2196125673917772 1.1121936514002846 57 175 223
0.1120522247860211 0.0788642920131536 0.8128591464171305 47 45 46
-0.0605622295665176 -0.2196125673917772 1.1121936514002846 57 175 223
0.2371329938388279 0.0388657986453329 0.8995063771963250 100 132 69
-0.0233355586356391 0.1022235821063060 0.8200832087006353 22 54 39
0.3116865016689355 -0.3345397158989181 1.1936100734931658 219 240 243
1.0995134570032621 0.5962943412703628 1.6988640733647371 131 121 122
0.2877331213564118 -0.4595950157235328 1.2572901959331397 210 222 222
0.1418688326150656 0.0768707836915641 0.8027156177607412 47 51 52
0.3840899988486167 -0.3218947680633942 1.1853604229552386 168 174 164
0.4956135363941025 -0.2238259726052504 1.1668931758515984 216 225 220
0.0203730287162995 0.0835700319759717 0.9220283145378136 28 21 15
0.0821874196168092 -0.2778690235883073 1.2307688985153473 115 90 68
-0.0428308663493828 -0.1042079147424625 1.0388984184502903 54 78 64
0.4393738656474234 -0.1558882332027302 1.1373393735769270 206 217 211
-0.1288791781294612 0.1161463521728030 0.8012198294647346 75 110 88
1.1382443937171467 0.6021145940305982 1.6539944699525200 111 104 111
0.3989161978195456 -0.4246003362779834 1.2496697564822716 220 230 231
-0.1209775014379737 -0.1483359253177754 1.0672701362474726 212 87 131
0.1172685270905117 -0.3943112918002775 1.2615761303703812 193 201 190
-0.1183618284836195 -0.2514300316563142 1.1407554298119960 219 228 233
0.5310866543782610 -0.3842046357317721 1.2821084758853356 198 203 206
0.3196375610693823 0.0640965852257111 0.8701620681144661 149 154 150
0.3196375610693823 0.0640965852257111 0.8701620681144661 149 154 150
0.3196375610693823 0.0640965852257111 0.8701620681144661 149 154 150
0.3458048331337578 -0.3646982421054178 1.2088023449587895 89 98 77
0.0269381593891434 -0.3394360511465505 1.2332613666389651 199 201 196
-0.0077283842274746 -0.3268053539369134 1.2306438240705249 187 190 181
0.0831235635945212 -0.2552829561844039 1.1612519296031574 122 205 211
-0.0059436728845642 0.0913200497259737 0.8542528607755313 56 87 81
0.3746329465744824 -0.3342382193555093 1.1961809408672559 119 124 104
-0.0119519897645557 -0.2487831594654528 1.1381111650675109 115 205 213
0.0355338947921855 -0.2758671966880038 1.2073845287818161 177 179 165
-0.0119322019812905 -0.1844586729183678 1.1094705067785191 75 185 218
0.0355338947921855 -0.2758671966880038 1.2073845287818161 177 179 165
-0.0586926693121783 -0.1811208763868938 1.0952478091195030 57 176 216
0.0893925484803682 0.0780445012594085 0.8323402104340458 107 122 119
-0.0569686019786228 0.0969180216257259 0.8388478827519668 30 34 43
-0.0068192637316025 0.0802467417348706 0.8578696558395327 27 28 30
0.1606318049400131 0.0731875462452312 0.8199369969708042 77 101 88
-0.2135582922733495 -0.2415575054640885 1.1770382423923909 117 95 97
0.0609168203249436 0.0808549448549115 0.8571879334555645 42 50 52
0.3459624655680346 -0.1588414685505122 1.2008269595516059 18 36 14
0.5463435928083960 -0.2076245498574720 1.1901772260646304 64 47 55
0.0609168203249436 0.0808549448549115 0.8571879334555645 42 50 52
0.4156974090017749 -0.1970345929570514 1.1158490100195850 201 220 218
0.0449281031209716 -0.2391674731820055 1.2237276722413053 227 127 163
0.5535167361105304 0.0428933136173561 1.0454598715715246 32 31 26
0.3189734167123621 0.0558665104438544 1.0338387379269700 130 136 132
-0.0630448820758989 0.0971803582348738 0.8564477092815447 117 132 127
0.1484977543500286 0.0751154695921494 0.8123031286028424 101 121 119
0.0533810538607810 0.0888567527130274 0.8150478930778062 184 203 207
0.5459884032295382 -0.2136084601872471 1.1954011435322474 93 79 79
-0.0952405205126178 0.1081243261564060 0.8189871839274611 89 106 100
0.2534321363379137 -0.2222015885491229 1.0977923257928424 43 64 23
-0.0046237197277487 0.0945768946602778 0.8353014154494566 24 58 42
-0.1031908949021853 0.1087787267515374 0.7913981137616702 96 97 89
0.3999444821120273 -0.2658377751128120 1.1535490772839905 97 100 83
0.3289450641137827 0.0699499125442091 0.7689361100824119 146 148 145
0.3143487813743423 0.0769262707325548 0.7621258853797018 136 141 135
0.1988308285789167 0.0739153578036924 0.7358204592168744 38 36 39
0.0221734093762089 -0.0915384960894866 0.9803871817800920 125 66 34
0.2721843308267285 -0.4520490167477706 1.2489156733127877 207 221 221
0.2785300164892116 -0.4367802001480308 1.2518946849667236 173 184 180
-0.0223833385363520 -0.1444200631902396 1.2452609645434360 68 179 222
-0.0242188556740306 -0.1828288703571525 1.1049377499864865 204 152 156
0.2575748106063931 0.0226551120252354 0.9960467753551306 126 134 119
1.1806179310349456 0.5136988283861684 2.0016593749013349 54 15 16
0.3378611043194621 0.0598400949501996 0.9738137563909620 138 140 137
0.3830043407773734 0.0431923973790834 0.8599420942083856 80 112 37
0.0844545230923720 0.0791047408327900 0.8806966230593868 54 27 0
0.0270227812258102 0.0823411897233474 0.8551262696194618 102 117 110
0.2291316572416964 0.0639611068569461 0.8344632520523079 31 34 25
0.2291316572416964 0.0639611068569461 0.8344632520523079 31 34 25
0.1227028549111100 0.0780061371460950 0.8412611017316216 44 54 55
-0.1201120678994091 0.0973009852084084 0.8165948300973531 13 14 16
0.3617044738823958 -0.3202053818296968 1.2004346415240230 191 212 205
0.2435850286383244 -0.4337090437830335 1.2285529798544315 218 229 231
0.2068455390595715 -0.4137926095411973 1.2117191274094439 224 234 235
0.2485126269053454 -0.3780953724753457 1.2565471029210864 202 217 212
0.3245945138518602 -0.2958907113977067 1.1891083248881407 138 210 110
0.3683558672873196 -0.1645675946561120 1.1788951967434596 80 136 65
0.4979991571936523 0.0636803027516991 0.8445916869390694 42 32 20
0.4727507450772500 -0.1057896908592626 1.1490484514425130 45 31 18
-0.1175041257106284 -0.1210534147678294 1.0456461411813314 18 18 20
0.3882452352215767 -0.2510828580058744 1.1622150589199123 172 194 182
0.3703884488765651 -0.2862396304885735 1.1939338652560763 142 169 152
-0.0159236610120555 -0.1075293854236504 1.0229308496417833 11 13 10
-0.0173784200831838 -0.1015606610528711 1.0336237827486316 14 16 13
0.0184915505408511 -0.1136241121818317 0.9863323654699552 128 69 37
0.1466505741344919 -0.0777338033283919 0.9824646317199139 2 8 4
0.0264951427807165 0.0270727451797990 0.9363786838809961 83 45 24
-0.1088589904893846 0.1015255290972376 0.8271628301262751 16 16 16
0.3474638340026201 0.0140960647139924 0.9859256614770288 97 160 79
0.3474638340026201 0.0140960647139924 0.9859256614770288 97 160 79
-0.0372399239746683 -0.0039996334425914 0.9922628750421655 102 168 97
0.0643895660980748 0.0595376018898825 0.8934460757557464 229 229 79
0.2298679071175656 0.0398317447703445 0.8690955971828696 28 23 19
0.1884982933316112 -0.3468141341477832 1.2092295738400154 49 35 22
-0.1281126583152183 0.0122063581517621 0.9944809312599185 170 136 124
0.2423795748908828 0.0313200503949126 0.9607852287934873 118 183 93
-0.0789948142982288 0.1095963412872888 0.8025453942111512 113 135 133
-0.1138336260975343 0.0645004132668145 0.9671755815143316 69 146 166
0.4032622439053380 -0.2423417836813157 1.1319506502872594 206 224 224
0.2612587929928625 0.0139106236958824 0.9476193453604274 137 138 132
0.3118574052441005 -0.3735469531585446 1.2153325995440520 37 39 34
0.4306322480239473 -0.1110209569997512 1.1447031505927712 118 189 95
-0.0846595043641621 -0.2794198215143563 1.1448255885809535 219 225 225
0.4212491801197862 0.0101110653933806 0.9343990115910281 146 146 144
0.0942343018728966 0.0404345237418801 0.9130474065141396 225 202 64
0.5057987267826483 -0.3913909541700229 1.2633073075164281 203 212 211
0.3544991118720839 -0.3757659437592438 1.1939370324815717 149 163 150
0.5305633413464109 -0.3748366172910569 1.2868496504461027 193 198 201
0.1540997453023768 0.0771242180058535 0.7801397488241124 54 80 69
0.2392795105825943 -0.4395768808151801 1.2381294950501007 209 218 223
0.3704939786243591 -0.4544785606514282 1.2657325959309806 197 210 216
-0.1957920316226753 -0.2435414007440606 1.0950308175970518 174 108 122
0.5665301290007889 -0.0240171994391521 1.0978093664265547 181 197 196
0.2151867734049417 -0.4139718025311080 1.2133307045685688 224 233 232
0.3657377501307017 -0.4301367550023870 1.2472518543528184 233 239 239
0.4286228618556892 0.0415598365821304 1.1305788291124874 110 116 116
0.0357503091850727 -0.0420639887772596 0.9600501294472811 114 61 30
0.2116273461199321 -0.4042115787114618 1.2121581784533340 208 224 221
0.4594453927620446 -0.0785347920482577 1.1306772971753658 183 185 180
0.4848201069205710 -0.4163792976058140 1.3527375628846583 200 201 205
0.5074745210134354 -0.1668360998890101 1.1495728623079511 64 52 52
0.4313331588856167 -0.1571959875788757 1.1241146752054776 186 215 210
-0.1227926247487451 -0.0536007809624144 1.0273698339712178 214 193 162
0.5561156958148087 -0.0002343462622822 1.0777973674078878 178 197 195
0.3135780405309194 -0.2563618731772634 1.1524865208165165 203 30 26
0.1950069144469327 -0.3664429279862476 1.2328056632282036 184 184 186
0.4280294239076673 -0.1411056528144113 1.1241015925001590 141 199 114
-0.6964674669169219 0.8136182257567610 1.2101848200668535 44 35 38
0.3115310497058574 -0.3356218215683263 1.1921171016734717 214 238 242
0.1649394925163277 0.0746025832880341 0.8365209823910597 22 64 44
0.0572804335325968 -0.0967853037104035 0.9840566170689699 44 45 40
-0.0268360754516404 0.0963787720417026 0.8429351257976599 58 78 69
0.4835518528202777 -0.1323057915378960 1.1477008594134372 192 195 188
0.4779350389415927 -0.2182022367404664 1.1651570268384348 182 202 201
0.6328058002447147 0.2279643815996475 1.4335247433552587 125 122 131
0.4653381778566811 -0.2120201782036485 1.1669114651935313 189 214 210
-0.5970199225607197 0.8118086199151353 1.1322668884030254 100 87 94
0.4763450129322184 -0.2043399103738414 1.1587691352360772 210 217 210
0.3903839891241609 -0.3613525379808092 1.1873637355997158 207 219 217
-0.1235368297363996 -0.0081706416404164 1.0081927755829068 53 148 178
0.5468614598219049 -0.1265058053714530 1.1416386158881191 209 228 226
-0.7573787993960294 0.8329056667600431 1.0636120430820650 67 62 66
0.3967762164028751 -0.1203977038929382 1.0322514581054028 118 192 103
-0.5873979066079641 0.8118958481185837 1.1143351317411483 70 61 64
-0.7810285003811985 0.8081831912303461 1.3874371696205186 42 31 27
-0.1647805825780730 -0.2382195695908873 1.0993482925673259 49 157 185
0.0347220786917793 -0.2535248962645666 1.1514037585363810 104 199 201
0.4015576887172997 -0.1033535145967077 0.9854319867638964 94 160 70
0.3014691823391311 0.0776455710477246 0.7561191078468293 118 120 106
0.4840571523856466 -0.3014380920434348 1.2180711933123096 188 207 201
0.2452012630854449 0.0877904586639744 0.7272827720392082 171 177 163
0.5258783567099069 -0.2948428867718424 1.2348548572311462 190 208 208
0.1117753240152999 0.1205740041925118 0.6900420983868142 119 99 98
0.2986240891178615 -0.3108753402785871 1.1204613629822644 128 207 115
0.5132284345589508 -0.3215490429406690 1.2436050134124805 210 219 214
0.4538737511719532 -0.3021882448742698 1.1906875048446179 195 213 215
0.4641657607506647 -0.2905754742954768 1.2072546159191284 196 211 204
0.4962463856149820 -0.2675333288351514 1.1955704727496723 181 201 200
0.4962463856149820 -0.2675333288351514 1.1955704727496723 181 201 200
0.5445454477784081 -0.2695098239365851 1.2479243385647081 181 196 199
-0.0515987850079680 -0.1583306345392574 1.0883012533497358 53 171 209
0.5175667388036492 -0.2283739144042005 1.1745338925078435 200 218 218
0.3305534775201704 -0.1673870862774293 1.1941614865061638 183 219 83
-0.0274070113893667 -0.1233906593525914 1.0481149236713052 56 68 54
0.2644940235832272 0.0967538912149253 0.7082866257551677 148 139 132
0.5059784338357823 -0.1944002543017744 1.1550781339620200 213 222 217
0.0456510870295338 -0.1252225057213261 0.9974286701304044 133 70 37
0.4850663804743799 -0.1400489355640914 1.1472167191080602 127 119 106
0.4850663804743799 -0.1400489355640914 1.1472167191080602 127 119 106
0.0191097778042903 0.0035058004421857 0.9445698620849434 113 56 26
0.3269964348350555 -0.4691604995032017 1.2665466943203998 189 200 206
0.0883583788144360 -0.3693124657028383 1.2587625775532323 161 164 157
0.2073745778534627 -0.3815307225543020 1.2282777262959872 165 170 164
-1.4858822212611187 0.8426495632818771 1.7174574827550806 66 41 34
-1.4858822212611187 0.8426495632818771 1.7174574827550806 66 41 34
0.1813903759486279 0.0694468867484177 0.7675616859807239 105 121 134
0.0404884820784401 -0.3611933144816044 1.2446915543395889 195 202 194
0.0334008114973849 0.0024996145176845 0.9469808819287385 149 80 39
0.1606872413260670 -0.0051644434781992 0.9524580432585754 187 146 144
-1.4749398489544145 0.8653910874264276 1.7159557904762275 72 47 42
0.0900162848640742 0.1142354737055170 0.6995581817845107 127 116 110
0.0457727744293851 0.1283320050456496 0.6898969143997679 126 107 103
0.5833822156055454 -0.0233899612980562 1.1250015666030440 141 151 153
0.2704434714562908 0.0797276913233682 0.7401940806660204 118 114 113
0.0361880250106554 0.1287714782003405 0.6873517846734578 124 104 97
-0.7372681443070569 0.8258704946670259 1.0959231486130541 83 74 77
0.0436882516345330 0.1106424048227961 0.7222944212744941 118 114 111
-1.4307078684329635 0.8460418116213850 1.7398869115304643 70 45 40
-0.7766479972243391 0.8204535332828293 1.2288307545613821 56 46 45
0.0319315907707450 0.1275882367720507 0.6934842677074793 120 106 105
0.5515963146115623 -0.0130372469992766 1.0847949624429114 184 183 178
0.4518363327531881 0.0429624135066540 1.0762125156462610 125 137 135
0.2822007338642777 0.0799189749430481 0.7404720983935124 164 166 155
0.3055543266361701 -0.3434914619833540 1.1990906483379002 39 54 59
0.2949661618882451 0.0858836605048101 0.7336364536432411 167 175 160
-1.2697574981833111 0.8471968609642315 1.5804594539314116 74 53 50
-0.0481712079964793 -0.2168857218911250 1.1150495603588173 179 216 172
0.5549684299514728 -0.1433827079306100 1.1531261544897826 203 204 199
-0.7561255355348278 0.8255742316942359 1.3030101612573424 46 44 45
0.4540577506868621 -0.2794545351394913 1.2005883966925934 208 227 223
0.2888995740347225 -0.1285852363687748 1.1466550074077431 200 232 99
0.5391908564535087 -0.1532178092786383 1.1496601158228767 187 206 202
0.5606063398431782 -0.1451948635216406 1.1725180391136880 165 171 171
0.0534818751216821 -0.0447538087271499 0.9652773343705251 200 199 194
0.2859723503320609 -0.1437963191838288 1.1572591354562560 104 78 17
0.4784613025570920 -0.1570782921574163 1.1522972204774586 191 201 190
0.2984377860942449 -0.1542125225105587 1.1677300349523252 106 83 13
-0.0134079894649923 -0.2651279492711032 1.1436014995857828 219 236 230
0.0803227418716318 0.1129585409958295 0.7095667069963973 154 150 141
0.2780346412902187 0.0754500464181594 0.7509267204485198 44 27 17
0.2394390151114788 0.1014730650406618 0.7052222171613343 135 117 113
0.0707153881238904 0.1219559188406702 0.6906687989726986 132 112 105
0.2720604321885416 0.0988028976789756 0.7068993292716917 138 127 125
0.4709219153269938 -0.1077884898903432 1.1411226408941204 81 78 71
0.0829736370602718 -0.0445617445149002 0.9608713703102110 216 217 212
-0.0479830935381010 -0.0564509727727152 1.0154817473102933 90 175 120
-3.6236042362998475 0.2195808386029307 2.3879940864359992 46 21 16
0.3087541991043263 0.0577204645435217 0.8319461792934727 105 209 112
0.4565005583629838 -0.1223430498188423 1.1484683238468425 169 194 191
0.3155956037623155 -0.3256384614812592 1.1900968823942433 124 200 112
0.4055406389574966 -0.3422397290086489 1.1821988172923770 228 238 239
0.4532111259095291 -0.1269490644655329 1.1386369289781426 178 198 196
0.0676455813250882 -0.1445819980883835 1.0023909678458247 93 46 20
-3.6531819738293225 0.3628549683443924 2.5096981964808593 77 37 25
0.4660984670033125 -0.2158033352644733 1.1700594780367997 197 217 215
-1.7462306336099471 0.9080880846078717 1.3413901172981026 49 26 20
-3.5971226964903757 0.3696341306842590 2.4975477668414441 49 22 13
-3.6589557449122450 0.3647399834461361 2.4268782160249329 60 29 24
-3.6151923929456826 0.3436247803542218 2.2021121173700089 58 25 16
0.0547976182173071 -0.0296021364289838 0.9573661761527306 207 182 40
-1.5219191807179766 0.9024366139987983 1.0768118090043983 53 29 25
-0.1142583904861466 0.0913716230609719 0.8489224185255112 28 27 35
0.3099339864165606 -0.3076231080166204 1.1091489336857050 105 152 74
0.3522819292596194 -0.4385149480443747 1.2365802176483831 220 230 232
0.2211020275239854 -0.3370358667541034 1.1850944059972630 13 43 41
-1.5811996171354463 0.9184888601504736 1.0294648774631412 72 49 41
0.2210460276357756 -0.3363151586948085 1.1860989401842654 13 43 41
-1.5811996171354463 0.9184888601504736 1.0294648774631412 72 49 41
0.5741435668801826 -0.1094269304468076 1.1710032434287039 170 182 182
0.4871669511535059 -0.3244825561712479 1.2039936947282075 195 209 212
0.2457145059419925 -0.4166717473980279 1.2311770731799951 175 187 177
0.3485082292575813 -0.4348244963394546 1.2301777906249294 218 228 227
0.3572645692793047 -0.3371048382336361 1.2157522933679863 131 139 128
0.4103563198082713 -0.0891360570774304 0.9862019830611189 72 134 51
0.2705864820513403 0.0655151894907102 0.8839816068639169 35 61 16
0.5269449954655124 -0.1023337718196638 1.1262471890504537 195 214 210
-1.5113260319395383 0.8991900724409860 1.1796244661801043 80 52 49
-1.8515137832230997 0.9259824491105627 1.1370537422863822 62 38 34
0.5593084157133993 -0.1393330264814831 1.1619814845083523 175 189 189
0.3639578383799474 -0.4263780853159703 1.2401147781373600 231 240 239
0.1766315006078805 -0.0136471791397581 1.2934099969239310 197 239 131
0.2397013760457258 0.0749802694132383 0.7324650701560326 61 97 85
0.5778742416679374 -0.1058890717311213 1.1655342081195963 131 136 140
0.4325039608983147 -0.1256206455000989 1.0573644098988837 117 187 99
0.3938381152174508 0.0475840075252619 0.9677951577725394 33 48 17
-3.6283410995826784 0.3545323888704502 2.5610384319350019 81 37 24
-3.6089917285351136 0.3541504225562176 2.4540270548586900 69 35 26
0.4243967091372849 -0.1757064698173271 1.1216372947282789 192 219 214
-1.5832026365515870 0.9149287211270627 1.0522534571533364 75 50 45
-0.0640951009337502 -0.3472630427645100 1.2296936451254734 186 185 181
-3.7317141281015180 0.4011240678080603 2.5287735270107108 39 22 12
0.3142822357887241 -0.3132356249804465 1.1159650904994398 137 214 120
-3.6171508402914490 0.4682437879649080 2.1019208109663072 38 21 13
0.4028845772870603 -0.0980000419631367 0.9774559380463563 93 159 72
0.3181859069766890 -0.3044165966458408 1.1210117236294288 110 168 92
0.4385920439098643 -0.0793652084293061 0.9805600347029142 141 134 141
0.3541920039224767 -0.4087889427881479 1.1963738135101025 214 225 227
0.0582576978894808 -0.0822009581701571 0.9794410656096062 3 3 1
0.4350747280336452 -0.3133824748418297 1.1776668787395201 230 240 239
0.4037320318486747 -0.0895131458557909 0.9777918866218871 104 173 84
-1.6130911698330641 0.9082838778831145 1.1835774796774645 47 28 22
0.4792400179696260 -0.3154978756859669 1.2045656626694827 181 192 194
0.0978149770614403 0.0835478136685215 0.7866639143633196 41 67 64
0.4126272118179565 -0.1107418939346613 1.0236541099362493 80 160 71
-1.5389130537419171 0.9146625099489485 0.9969241285351120 52 31 26
-3.6033849240062614 0.4303728938689469 2.3315351200219165 67 28 23
0.1338903093706104 -0.1046393511344952 0.9922952097922725 78 0 0
0.4682372755753783 -0.0850610947389932 1.1336841927269472 161 177 176
0.1338903093706104 -0.1046393511344952 0.9922952097922725 78 0 0
-3.6420555708120519 0.5123467025525176 1.9891859255277982 33 18 11
0.5777076168845156 -0.1049190535065995 1.1830252155667291 167 177 178
0.0807291641892448 0.0745692462895709 0.9091702713785880 229 246 92
-3.6194946867862576 0.4034894296685161 2.1094139550152073 76 36 24
-3.5681031868574884 0.4194155872914048 2.1752064330893748 75 37 28
-1.6454984762212774 0.9180828891382996 1.1010267893259877 68 44 40
0.1601596755678592 -0.3462316280330076 1.1929911983080486 137 140 131
-1.6454984762212774 0.9180828891382996 1.1010267893259877 68 44 40
0.3976722079642097 -0.0820333982128482 0.9680835294915715 112 176 89
0.3954021825066037 -0.1150439040003394 0.9834934807072848 56 98 34
0.5822367998774350 -0.0749052187092932 1.1521738255345726 161 172 174
0.5689579309609973 -0.1114926665325647 1.1548268905069965 177 193 193
-3.6743305591544040 0.5135530800570495 2.5258819658322023 56 23 14
-1.5215414463411812 0.9037127398263948 1.1662964187396871 75 51 47
-0.0957379113776900 -0.1406750071687067 1.0703176092361015 100 191 222
-3.5890756378146493 0.4486725627804447 2.1910329630757022 28 17 13
0.3865922166076929 -0.3724001106777472 1.1892785407364672 219 225 225
-0.0865522622826018 -0.1428799236972042 1.0738861132069304 109 177 198
-0.0872267113441286 -0.1426277671233037 1.0742669614792144 109 177 198
-1.4585010634777149 0.8876264006997240 1.1672192344465742 62 34 31
0.4822287568269133 -0.3471269563513916 1.2083311519424220 226 235 234
0.3341995389696136 -0.2467153728011786 1.1502626345970388 114 176 90
0.3108042953944689 -0.4499476059847973 1.3213874874198410 189 201 199
0.4405729744703143 -0.1379527406797859 1.1240648966933116 158 188 178
0.4021530957826872 -0.1043312877124755 0.9845586323067461 94 160 70
0.5043415192605984 -0.0718264012756804 1.1241579846861012 161 180 178
0.5155269277159170 -0.0894958854143168 1.1198548535897088 167 189 186
0.2710199147005118 0.0646511391731376 0.8750736502476139 38 83 16
-0.1463532321295224 -0.1199817411844335 1.0499456981798505 191 76 117
-3.6597561461028780 0.5657455318571436 2.5213199118811400 28 19 14
-0.0216200434268465 0.1000604487321395 0.7966413866963251 20 51 35
0.4148498098580314 -0.3190718721853449 1.1723225267866866 216 228 226
-3.6073549510153535 0.3521090572739071 2.2520659502974816 67 33 24
0.4601442731420850 -0.3212678598059389 1.1958243081658730 220 232 230
0.4004676872370281 -0.3606797500444638 1.1951170626441003 224 230 230
0.0897352896594447 0.0817709263535257 0.8596090723635055 36 73 55
-3.5560597820550592 0.4674072482700265 2.0140065825240936 42 21 16
0.0929591771537588 -0.1551957926417422 1.1212474730974535 66 199 230
0.5227934221746484 -0.1636022911776362 1.1510191888813506 168 184 183
-3.6625526295276170 0.4737949544656221 2.5572579138760223 54 24 14
0.3210904574546362 -0.3214018336113180 1.1957970146041679 130 194 110
0.3141716232938503 -0.2999807663024864 1.1166869080357258 94 18 2
-0.1513731151432060 0.0471463957268684 0.9822298320336607 64 43 38
-0.0518845354681781 0.1029658817138850 0.8088587234652792 23 50 43
0.4009712006823657 -0.3457555925165831 1.1818506648494520 224 238 239
0.4163420349088427 -0.3107963327602135 1.1680848484582704 209 223 223
0.3949739413867305 -0.0865719124460514 0.9683093100926332 89 140 65
0.4401440221931551 -0.3112820310118229 1.1776714568235269 221 235 236
0.4721794274783944 -0.3141069434678387 1.2018893483285860 180 192 192
0.4858747464882678 -0.0460160244848385 1.1148539303720828 186 205 201
0.1805081038135189 -0.3654627329931024 1.1990305757183244 183 189 185
0.4347447746266982 -0.3078538234986963 1.1773204336212548 203 217 217
0.4858747464882678 -0.0460160244848385 1.1148539303720828 186 205 201
-3.5737287421602710 0.5164348632987200 2.2452791112567296 32 17 12
0.4343595789627671 -0.3037006480870137 1.1745779438921435 212 223 225
0.4229054900583621 -0.2340005453551290 1.1230735082883285 83 80 75
0.5015233683844659 -0.0224200386864395 1.1000795354896247 175 193 195
-0.1169016904425151 0.1034922783295443 0.8088955819482851 131 119 119
0.2584127837264078 -0.2465008153521578 1.1307375357084117 243 133 182
0.1853932216283491 0.0822255203013655 0.7053851100413454 21 51 43
0.0242195229769752 -0.1749725019319102 1.1134609199560950 222 110 146
0.3924047768766657 -0.0789869587729789 0.9561991453064472 91 139 63
-0.0359349395840532 -0.1606187481023758 1.0922289652340393 198 110 135
0.1611096382619765 0.0484785885043992 0.8745656733281610 230 239 98
0.3986608833313972 -0.0755436317480342 0.9524984158784278 114 171 92
-1.9068377846315738 0.9388623743741603 1.1832418178414694 50 26 24
0.3242432752535900 -0.2345780142540607 1.1244824709953802 96 158 72
0.4558284722854134 -0.1145494759622737 1.1391255679915793 192 213 206
0.4185684022132550 -0.2036053153643525 1.1412617610500391 196 212 209
0.3362324105640867 -0.2156798367382719 1.1646828777811087 53 86 31
0.5276987478517015 -0.2197018559552406 1.1763732448740629 182 201 199
0.3200724296195900 -0.2147041483987527 1.1278392603761984 52 90 33
0.4997039553165010 -0.1248332590423964 1.1394794389913736 200 220 219
0.4890985550908175 -0.1904504550431358 1.1550122732829540 190 210 209
0.4588859811741389 -0.1055363992867974 1.1396978563440743 71 67 68
0.4890985550908175 -0.1904504550431358 1.1550122732829540 190 210 209
0.4447160630140732 -0.1497170261649148 1.1332872641087093 173 192 190
-3.5601520744913038 0.3760911903564000 2.3739700888731683 42 22 15
-0.0351248586344475 -0.1838730153655719 1.1023528428826117 224 86 137
-3.5791700853837374 0.3074350077634632 2.5647869628387934 78 34 23
0.4809124262604394 -0.1059362146772088 1.1369204305894167 79 72 79
0.4809124262604394 -0.1059362146772088 1.1369204305894167 79 72 79
-3.5421347157374474 0.4012916071855434 2.2709650645852832 38 23 18
0.4268111159510264 -0.1823595578884407 1.1329960737092111 184 209 206
-3.5566464488259202 0.3936364812118114 2.5711141960329202 78 41 25
-3.6106825287069308 0.5042863263592395 2.5541256638684229 79 39 27
-3.5649960340653339 0.4766773363575718 2.2144860560961588 71 36 30
-3.5589881668150962 0.4287027953600265 2.0186819126117039 69 34 30
-3.5749038725919644 0.4004047486189112 2.2339642034103488 77 36 30
-3.5649960340653339 0.4766773363575718 2.2144860560961588 71 36 30
-3.6251368908811958 0.5616237286647048 2.5596327351920922 5 5 5
0.4815104398202719 -0.4175771281166248 1.3631773447009945 16 15 29
-3.7833890279450464 0.5735963160135866 2.5367353607197676 66 33 26
0.4492621734896158 -0.1424451481849915 1.1349879713692550 181 203 200
0.4436912362218486 -0.1346692091301649 1.1292462197818545 150 169 163
0.5094188228974669 -0.1633592329058311 1.1424874267640985 208 229 222
0.2200527749834623 -0.2515653421790652 0.9962869025105543 50 190 226
-0.1086147809453932 -0.2489873187344498 1.1419292237815120 212 223 229
0.4935387342076598 -0.1597817590544161 1.1478249525616990 69 54 49
0.0216833445312526 -0.1349008670132620 1.0652466957296833 64 74 66
0.4935387342076598 -0.1597817590544161 1.1478249525616990 69 54 49
0.3369044975924751 -0.2926316417063659 1.1667663545938045 117 183 93
-3.5862024952822167 0.3481608048529538 2.3317976321567229 64 32 21
0.4730071704667876 -0.3047630516237309 1.2105109268175647 103 98 94
0.4513125365600070 -0.0776174154812164 1.1273496957802627 164 194 194
0.0542969364697310 0.0879739419348712 0.8138576887167772 186 198 196
0.1016139955767211 0.0774147719532702 0.8193612780046015 180 129 50
0.4732204326158733 -0.0490670329397246 1.1154207224255666 188 217 215
0.0964311603078793 0.0805560754436373 0.8133652339659394 178 124 50
0.0964311603078793 0.0805560754436373 0.8133652339659394 178 124 50
0.4958803163673164 -0.2231003503909407 1.1691575224672599 205 225 223
-3.6611126156896958 0.2981701185420910 2.2953912122543692 50 23 16
-3.6611126156896958 0.2981701185420910 2.2953912122543692 50 23 16
0.2072148774611758 -0.3707288192434573 1.2383904012548592 173 182 177
0.4175510016552695 -0.1903578980932336 1.1347482541996718 208 229 224
0.3306939064628872 -0.3402533830297998 1.2274257918718701 51 44 34
0.4376653947392177 -0.2829498091616412 1.2053380515806615 95 76 70
0.4376653947392177 -0.2829498091616412 1.2053380515806615 95 76 70
0.5764527402504424 -0.0771099882571071 1.1478569404320929 172 186 189
0.4717861598589800 -0.1100864585768101 1.1389346854745646 81 78 71
-3.5961913858924088 0.4822991804819574 2.3292076924810798 64 32 21
-0.1063159490889404 0.0989101123414323 0.8241794652206214 25 25 27
0.2740905489018462 -0.2464802207589162 1.1266834994255568 228 111 179
0.0341548246452082 -0.2268567736445030 1.1363876640781603 43 181 230
0.0567095880412916 0.0784573025794691 0.8788377208451016 81 64 36
0.1994511721678015 0.0513040837288795 0.8550394701504745 238 245 80
-0.0498426339130926 -0.2749480009436628 1.1973682843469127 215 226 232
0.0065844159442715 -0.1878627288520084 1.0685258919308076 72 190 220
-0.0595600285448220 -0.1443819024516016 1.0804710482571711 194 188 198
0.0516932777910042 -0.1593152541926429 1.1123967433178410 98 193 223
-0.1655477102838936 -0.2076952968833627 1.0843434917204962 187 204 152
-0.0113999139523871 -0.1959300459315758 1.1138496036067935 58 180 217
0.1594767294843647 -0.0040521131003828 0.9467776331245761 26 12 11
-0.0607367661321116 -0.1520993211032103 1.0834515534975708 140 172 197
-0.0401018526871190 -0.1475912706674355 1.0869839160735968 123 180 209
-0.0007951640894769 -0.1113029668314446 1.1447302145820866 35 121 146
-0.0050373520925589 -0.1520707038020397 1.0961347288757572 70 150 173
-0.1115378677893461 -0.2333747947022315 1.1324691332767813 189 149 158
-0.0147337121233973 -0.1591267508807181 1.1002591068414103 127 174 194
0.5053107421588877 -0.3680943983435047 1.2207177604687034 38 38 62
0.2284780565176603 0.0417710856870950 0.9118398233191968 43 58 15
-0.0091990150654517 -0.0923306201168674 1.0083756641116057 47 46 28
0.3392285919826352 0.0271600300009769 0.9839082384656561 49 95 33
0.2050565493494279 -0.3012378527818185 1.2027586002836295 68 70 65
0.0053718499727664 0.0953178294171565 0.7987403324129198 19 63 46
-0.1082988188043716 -0.1498442896736853 1.0719720486653623 149 167 189
-0.1967209122537949 -0.2965406257019286 1.2415744858259059 76 43 36
-0.1603369029829727 -0.3154186864114417 1.2000096643951608 129 118 116
-0.1967209122537949 -0.2965406257019286 1.2415744858259059 76 43 36
-0.0062631618302659 -0.0775732572089205 0.9998822883193133 16 17 11
-0.0062631618302659 -0.0775732572089205 0.9998822883193133 16 17 11
-0.1905231386226767 -0.2925543124019481 1.2213853650331843 80 60 61
0.2439551686716539 -0.4310369174424372 1.2835889837322836 190 209 205
-0.1905231386226767 -0.2925543124019481 1.2213853650331843 80 60 61
-0.1766359174230676 -0.2930643167462356 1.1845875126245602 163 161 162
0.0178411949697252 0.0812573078613660 0.9399908354240193 41 32 17
0.0787346058827134 -0.2693070616798427 1.2252609201225708 220 245 206
0.2278965361642319 0.0641035142011510 0.7938879331324228 8 12 11
0.4562534360902139 0.4765733021946720 3.9684899903007875 32 24 21
-0.0060246615885886 -0.0681501551822574 1.0035549896890201 12 11 7
0.0613641421895256 -0.1274679586342025 1.0692530588048028 177 181 167
0.1437799918043200 -0.1646593637846800 1.0962026045163638 61 96 38
-0.0049574698312774 -0.1160010711193460 0.9999650617011491 30 26 15
0.0093298809090390 0.0882070541183198 0.8447148755059667 7 13 9
-0.0096974619935571 -0.0989911991027554 1.0108076320667430 14 16 13
0.6873948224120863 0.4585871414868414 4.0571949636192981 24 20 17
0.0044210563034142 0.0916744546938835 0.8269202121988267 47 93 67
0.2079746240268372 0.0755787962570653 0.7231550992840290 29 28 26
-0.1003137394584991 -0.0588906521008478 1.0085018598700670 18 17 13
0.1458588678193737 -0.1621865411116473 1.0601480108823775 52 85 30
-0.0986142541652784 -0.0498079371740968 1.0051166637123823 11 16 10
-0.0069291559363447 -0.0843643394332515 1.0073765228960134 23 24 19
0.3237427931059037 0.4949638211031775 4.0226216434957269 28 23 20
0.2490884684787818 -0.1693959630393538 0.9623518671690495 107 175 88
-0.1102070955543574 -0.3881660884135207 1.2678857561748058 158 151 145
-0.0992994476622991 -0.0405739591491352 1.0092066001102131 31 25 25
0.3532526600110852 0.0332358451409597 0.9381613184591800 34 61 18
0.0929848003007377 -0.3798533295104466 1.2537794807169991 161 160 155
0.2740989809982152 -0.4215253288025099 1.2507858056630310 153 159 149
0.0004915206590693 -0.3751652484667396 1.2563817300188482 176 177 171
0.1989853805248369 -0.3798713689691691 1.2308792348906434 146 148 143
0.1555888977919765 -0.3832393012400283 1.2017848720230171 164 169 165
0.3824503067642021 -0.0013319143940538 1.0067296378787656 70 71 39
0.2820780623063807 -0.3764348629893052 1.2525482515303337 131 135 121
0.3824503067642021 -0.0013319143940538 1.0067296378787656 70 71 39
0.1955138584709614 -0.4133404838741808 1.2033274807482033 221 233 231
-0.1950114761162714 -0.2418183040670733 1.0934644157797313 189 135 158
-0.1759665214083009 -0.3465584561800497 1.2518830617160897 72 50 39
-0.1654076517267034 -0.3789313245184627 1.2913035227796357 31 21 19
-0.0552065372433005 -0.3844699779281819 1.2557550748949180 175 172 163
-0.1637306729539188 -0.3753057225493338 1.2841281597122178 49 34 31
-0.0617219355136159 -0.1120870727309399 1.0359903387420024 72 88 75
0.3432714428354620 -0.3684632109973776 1.2175780321760841 100 105 83
0.3530492541275277 -0.3581615955495390 1.2124983955310875 100 105 82
0.2010186894223133 0.0765891151856376 0.7060203916257093 31 94 73
0.0133846408411693 0.0969130701048555 0.7952978013257707 74 133 111
0.0040422440589343 -0.0017353319940527 0.9775734639218799 5 7 6
0.2322897815459168 0.0437810521790158 0.9008690130463811 50 67 23
0.2320543047820184 -0.4272234399842723 1.2820174143849954 187 203 200
-0.1867049914838237 -0.3239531736007887 1.2466133952203200 39 24 17
0.1829105392474221 0.0779521415136339 0.7071679028711457 21 70 49
-0.1356568762343551 -0.3865311830161532 1.2691572711131693 129 118 114
0.0090420777119970 0.0570384477606388 0.9722316185497099 9 9 7
-0.2241596938853875 -0.2078138774703850 1.1800818362620489 33 24 17
-0.0733962594730071 -0.3942873227815489 1.2634197368730458 168 161 155
0.6423627462248938 0.4535535801197606 4.0299298991145278 15 14 12
-0.0697739179999668 -0.0610620013252387 1.0118982010828599 46 48 37
0.3725301913727964 0.0050635383551830 1.0237382186473838 144 146 141
0.2022434078119281 -0.3038108962572120 1.1758747536953473 52 72 37
-0.0221597018309293 -0.3629904725899854 1.2429919531142943 174 171 164
-0.1524980044280705 -0.0866876799314207 1.0326331919624190 100 175 178
-0.1706807849313106 -0.3523684179913563 1.2452180560639015 36 21 14
0.2490403363804810 0.4718264891634719 4.0318407008111130 84 56 55
0.3566733084580959 0.0118720841642804 0.9619310388697129 43 50 16
-0.1747862356058917 -0.3379083728599174 1.2408051642414621 96 75 72
-0.1747862356058917 -0.3379083728599174 1.2408051642414621 96 75 72
-0.1063308673147128 -0.3836905451073232 1.2546300817480844 157 153 144
0.2249746142433497 0.0618667552457408 0.8311968757647288 20 22 9
0.1958547218841374 0.0739256839282492 0.8219132155668969 24 79 50
0.2189599004217252 -0.2740435060963027 1.1476544142922946 63 76 32
-0.2200117675226813 -0.2005239591549733 1.1718473628946562 88 84 85
