ply
format ascii 1.0
element vertex 697
property double x
property double y
property double z
property uchar red
property uchar green
property uchar blue
end_header
0.1512012740580607 -0.2196503909937655 1.0209296721948589 174 176 162
0.0144474921479927 -0.1631805198134448 1.0979422133303285 127 113 100
0.0144474921479927 -0.1631805198134448 1.0979422133303285 127 113 100
-0.1669688292870279 0.1316615387454020 1.0454145006168203 109 155 119
0.2934357018594863 -0.0331970744188017 0.9616228796715415 196 199 190
0.2934357018594863 -0.0331970744188017 0.9616228796715415 196 199 190
-0.1451690190672259 0.0818999372337111 1.0438529067192437 61 66 34
-0.0403676780246545 0.0841873070397862 0.9739058537995103 26 29 34
-0.0924380235575486 0.1161916211329712 0.9876138221749149 115 92 84
0.2303453741075100 -0.1234947312341608 0.9601456222579471 209 219 218
-0.0403279051250952 0.0844218494816902 0.9738673867136420 26 29 34
-0.2016557668212275 -0.0584359556612552 1.0786596971210669 51 166 197
0.2253082653458391 -0.1284801482529978 0.9675754877719277 198 214 204
-0.1205438510180126 0.2896686501039450 0.8242688010884134 71 56 51
-0.2264369867741826 0.0626512102410993 1.0784054553816091 198 91 119
0.0977015440227651 0.0129182571140517 1.0438532751212193 42 42 8
0.1020456111467687 0.2124307039876897 0.8494963713072748 97 131 47
0.0849564941780882 -0.1433748640734965 1.1012910688875734 122 127 123
0.0778224805301409 -0.1418871028387745 1.1001465406524844 148 149 144
0.1665798428514167 0.0115794443065213 1.0242502408014653 205 233 96
0.0682471745718515 -0.1961178880675971 1.0199102197557137 156 156 154
0.2799891868485820 0.0965919461550481 0.9614460021291339 187 190 183
0.1644975620407031 0.0970404818408292 1.0539548464550146 102 174 90
-0.0852268526617267 0.0272301602733400 0.9894429753958226 22 23 18
-0.0447554291109628 0.0415319814972332 0.9774338011584054 49 50 44
-0.1737853927042264 -0.0724172139465756 1.0754474018169982 191 145 155
0.3344043156696240 -0.1155254247049810 0.9766862568302375 206 211 205
-0.2099918886594803 -0.0335718416124733 1.0791759166430557 202 84 118
0.1635975817821001 0.0137100096174792 1.0282165477392389 35 84 3
-0.0635331041874311 -0.0006904908562799 0.9839134584997640 202 152 101
0.2622254988716666 0.0536082290892916 0.9860116760051754 66 54 40
0.2170334383575412 -0.1041260816631133 0.9755561612996987 178 189 173
-0.0987273522411162 0.1883704163103060 0.9451129246653704 161 124 17
0.3035170323373129 -0.0852354835719099 0.9697681071541500 201 206 199
0.3035170323373129 -0.0852354835719099 0.9697681071541500 201 206 199
-0.1813137625869559 -0.0567052585633834 1.0745955639151010 220 79 131
-0.1173389200159310 0.1822586447881964 0.9619419995654267 164 125 8
0.1787662708402747 0.2349168685463777 0.8048173599933133 109 134 53
-0.2277926870082259 -0.0473413417033825 1.0833437213934425 167 123 140
0.1158517525158266 0.2183954217498525 0.8368123043627818 86 122 34
-0.2791721096360592 0.1812248757480626 0.9779213829058412 23 17 21
-0.1637499292608129 0.2587222627008757 0.9188237480180464 155 148 142
-0.1196069246668265 0.0727377062679305 0.9991824732099293 113 63 30
0.1292701709204409 0.0338366649883426 1.0322781408373538 130 184 100
-0.0197599993518593 -0.1786434074674690 1.1005678523168665 57 47 37
0.3005952644464505 -0.1717858418196958 0.9658356750576954 201 207 203
0.0387339272375822 -0.1613710423964628 1.0556536064260003 109 85 73
0.0066596602684020 0.2891628430170137 0.7921830265983342 138 123 126
0.1274669304452830 0.0552664836310281 1.0387699839770095 117 173 86
-0.0361153709120020 0.2762333302720470 0.8078799305473953 183 191 178
-0.1047041523981473 -1.3664334574593704 2.7616013335290153 61 27 15
0.1274669304452830 0.0552664836310281 1.0387699839770095 117 173 86
-0.1375455902141287 -0.0736958705858855 1.0713414368147618 203 149 149
0.0741155978156824 -0.2049321679197071 1.0185535479173180 164 169 162
0.2847535215998697 -0.0148355083829801 0.9584492943688698 196 199 192
0.2555176114489071 -0.0559633891418917 0.9788022624338766 199 206 198
0.0079021499202410 0.2814515341888050 0.7938540016335407 182 192 181
-0.0618824740266827 0.0534740742247338 0.9811354917714183 202 205 194
0.1810412508133086 -0.1977512306423530 1.0131256701526286 107 106 86
0.3316267776426674 -0.0108837869720538 0.9678018161164678 64 47 55
-0.1744894016693417 -0.0742429006638453 1.0758592620236660 202 142 141
0.2731633552752027 -0.0170133266282220 0.9674272946101206 200 206 196
-0.0670136641442196 -0.1279049152342323 1.0650532451535641 223 117 157
0.0616812769926010 -0.1892227031541892 1.0266593452357140 172 173 167
0.2770980281840140 0.0476262947346356 0.9679258559481340 129 118 100
0.1054766783824527 -0.1937876180744903 1.0402759627270999 173 172 167
0.2253053376791077 -0.1258824183887641 0.9635260862047809 218 233 230
0.2132559985770744 -0.0042304050451033 0.9641347428186142 103 102 71
-0.1489959329449070 0.2702154811954730 0.8444837629877515 147 139 128
-0.1530555856754943 -0.1274376044436648 1.0737026733990214 103 191 195
-0.2292884310760057 0.2643717590454547 0.8775181956213182 37 27 26
-0.2880107065107272 -1.0825732532607373 2.6196502894258487 7 7 7
0.0860772021976183 -0.1868885304315813 1.0367324091633794 88 77 59
-0.0289513317077354 0.2769966128189162 0.8065258549196103 181 192 176
-0.0202906702233776 0.0898179036352579 0.9678848746824625 16 16 14
-0.0925588637921333 -0.2183282564418370 1.1128845089893957 183 184 178
-0.0004219830739233 0.2865912142623303 0.7948490730259592 155 150 144
0.1061878402266879 0.2300882260058432 0.8528026259594602 65 90 35
0.0144249221021954 0.2828674121216329 0.7904741054264991 182 190 179
0.0432058621513120 -0.1526203737208147 1.0615550185516471 145 137 134
0.2864777194906135 0.0209480449072054 0.9605142935342323 93 71 57
0.2880185581435281 0.0206166287845105 0.9619843905865814 64 52 52
0.1795302425858745 -0.0795393973442348 0.9951120860465024 155 215 119
0.2857794873824919 0.0266810953335909 0.9633478473364707 203 194 179
0.0900793526327791 -0.1256650436760362 0.9991690575295257 61 87 42
0.1795302425858745 -0.0795393973442348 0.9951120860465024 155 215 119
-0.0928655692196392 0.0808899829581129 0.9888261219539164 61 8 0
-0.0507130477155983 -0.0779396943027173 1.0585773852335545 58 185 218
0.2302308070883714 0.0187034181569489 0.9713950967017079 197 212 207
-0.0086672091568282 -0.2168838763620292 1.0953963453863409 164 159 156
-0.2074237634178731 -0.1382517345833945 1.0832909991128596 195 131 132
-0.1187784779454843 -1.3955396965349500 2.7591298459944675 9 10 14
0.0297984173265521 -0.1812196463502199 1.0569976474021368 174 176 175
0.2666595016036194 0.0732800131969058 0.9803883093249084 122 119 102
0.2128850166109130 -0.0839840542812772 0.9793767307877598 131 144 118
0.2666595016036194 0.0732800131969058 0.9803883093249084 122 119 102
-0.2205889659484596 0.2307417040330440 0.9137553639333568 120 117 112
0.2073655070692493 -0.0847412343001411 0.9922545348492881 159 183 157
0.1192647585120555 0.0201093568700273 1.0380931097266783 107 158 79
0.1194120470085216 0.0200986294233235 1.0382387025699460 105 157 75
-0.1987844578733517 0.2639265081339424 0.8645759474657356 157 154 147
-0.2307123718019671 0.2578465179224334 0.8810823329651055 154 154 144
0.2745272361647572 0.0152533456282935 0.9583788955213727 191 201 193
-0.2373704431561090 0.2619008173748202 0.8810545912753790 47 27 28
-0.0417279779030980 0.0371835414945904 0.9772140141212176 25 27 22
-0.1914816344139869 0.2771823900876736 0.8516116632092825 88 84 81
-0.2161354514420449 -0.0288370115138879 1.0802237379937163 97 171 184
0.1045809156042596 0.2222995027841224 0.8498651769215330 90 107 37
-0.1552561903778089 0.1017761387610223 1.0455628330018272 58 56 59
0.1647830294711751 -0.2199749126340786 1.0294381584640715 203 215 213
-0.0632046429342610 0.0594077582216417 0.9811587633530879 182 182 180
-0.1684889417628651 0.0084171755011371 1.0509656818241191 80 157 113
-0.1065642532266275 0.2757813412084759 0.8288511493893582 64 25 10
-0.0717849804514249 0.2917550532212648 0.8127815986025425 124 129 123
-0.0717849804514249 0.2917550532212648 0.8127815986025425 124 129 123
-0.1469642890733454 -0.0737263727604192 1.0729390015063234 223 95 143
-0.1117947780992468 0.0636634177406426 0.9955050763797447 169 110 68
-0.0977679491339851 0.0742419075021922 0.9912678682811750 200 199 194
-0.2098652026820804 0.0177868549131344 1.0776566843313575 203 70 113
-0.0214507006674408 0.0981014661664650 0.9674319317321312 35 17 17
-0.0214507006674408 0.0981014661664650 0.9674319317321312 35 17 17
-0.0508763402578295 0.2499815714318947 0.8164340071756145 164 177 168
-0.1132038863130651 0.0876697979378044 0.9956650276704980 115 59 22
-0.0871275484197634 0.0047655778505916 0.9909961073234216 161 113 77
-0.1104177486299813 0.0160390999305930 0.9959184535901591 172 116 79
0.0253214746458301 -0.2172880772837061 1.0898430859344801 177 177 167
-0.1406687263188385 0.2677949334056797 0.8432902957720873 169 171 160
0.2666387628170311 0.0477656908284668 0.9800299690681591 173 180 172
-0.2097996658591088 0.2603103879467531 0.8718539294559798 157 153 150
0.0974180111327562 -0.1982256039058795 1.0174349324579364 103 100 81
-0.0240327321586452 0.0630366464358501 0.9707834080662728 2 8 4
-0.0619391023840553 0.0218600962897858 0.9830963597429050 209 210 205
0.0749443344307780 -0.1899816498038278 1.0235708384708935 202 214 214
-0.1705827686246736 0.0324051165889565 1.0498536242861374 40 41 35
-0.1768307130335903 0.0100888832394309 1.0514091032901292 80 124 97
0.3155236072736113 -0.1094046350263106 0.9711244290519840 105 75 64
-0.2185042698871865 0.0198918009463409 1.0781527049744752 166 189 143
-0.1527025497680550 0.0292459512090788 1.0510746535032953 113 188 131
-0.1823091345152735 0.0570215214064883 1.0740965234179001 30 30 28
-0.2087938074793718 -0.1212000870715132 1.0914165204917596 186 189 172
-0.0911395229388423 0.1545619020642655 0.9819488884355587 220 193 42
0.3250386505828088 -0.1468347318756597 1.0390085725253115 226 230 229
0.0479159660585057 0.0200525297685817 0.9034993154801981 107 175 88
0.2137136865149619 -0.1019284616987984 0.9791727489094347 213 228 221
0.0725234128408331 -0.2443054839132402 1.0727387334333716 191 201 193
0.3358558292085257 -0.1783661421839605 0.9844087807708398 198 208 209
0.2595815246371644 0.1331594689109823 0.9674872000109116 195 197 194
0.2092283545445716 -0.0262951694517497 0.9629631986565037 139 151 131
0.3654177798292740 -0.1748310778828862 0.9865319131840850 206 211 215
-0.2359748158333859 0.1332652809575230 1.0781924806250851 141 23 47
-0.0756835797326840 0.0570372592436835 0.9854551952790293 81 81 79
-0.1561838777223024 -0.1262573309491965 1.0757084741732745 79 179 205
-0.1637477371843551 -0.1250612480212016 1.0763321620920170 88 178 189
-0.2010060939685036 -0.1273515484383361 1.0804557908773111 87 176 184
-0.0884509078361201 -0.1089380801746767 1.0644942269586972 89 178 194
-0.1917925516336698 -0.1164749152487373 1.0789950013254392 88 179 197
-0.0224655036205974 0.0796457364630096 0.9690333489371561 215 222 215
-0.1441392478003637 0.0811405118879747 1.0448431911945604 53 54 20
-0.2145292398194090 0.1218050797683513 1.0752105445334421 49 148 179
0.1971609631547029 0.0047415653478984 1.0260031943734698 31 73 25
-0.2038031105219878 -0.0843550900445396 1.0795451681532120 77 175 186
0.2259868471503931 -0.1381611725220701 0.9631229186911703 189 202 195
0.2171115433455773 0.0004978996554223 0.9596822226949584 200 206 196
-0.1596462664990608 -0.2207835059915368 1.1386904771878243 66 41 34
-0.0865605949660033 0.1215527066074999 0.9850766702373837 23 24 18
-0.2054402028631548 -0.0220349572560488 1.0776772981314087 201 69 118
-0.0911283834545173 0.1212790183731001 0.9864613980503545 25 24 19
-0.2068450941625063 -0.0715699247073807 1.0795904167271027 57 171 197
-0.0834330019448125 -0.1353024911695543 1.0796144634149831 179 164 171
-0.0414871263424155 0.0455750113700347 0.9761046131200374 199 41 42
-0.1118550704683451 0.0444393349891101 0.9960600954370564 135 80 49
-0.0692186445344338 0.0652562010173336 0.9830533396739783 215 217 216
-0.0366404802610008 0.0794293468015169 0.9731211418283650 213 214 208
0.1305653029496434 -0.0020822443809268 1.0302490258493815 98 81 11
-0.1899983610573658 -0.1297306458186746 1.0766398678214244 101 178 184
0.0940170153003221 0.2151527405536776 0.8616102089617799 76 120 45
0.1237826324747988 -0.0123317526603443 1.0371124427333303 95 76 17
-0.0770182012523284 0.0835266356367397 0.9856710103856378 211 214 207
0.1048140843958146 -0.0048129182640544 1.0483856310747039 77 65 17
-0.0081242930325918 -0.1329530775010457 1.0417651694987715 41 40 35
0.0898963156748653 0.2174234822077996 0.9008853881810903 121 137 127
-0.2400637101910508 0.2183756241950644 0.9334080383036779 8 8 8
0.2794206350487604 0.0848973100899418 0.9634773706241585 175 176 170
0.2794206350487604 0.0848973100899418 0.9634773706241585 175 176 170
0.1264861943497508 -0.0533732731357174 0.9662729833843607 197 34 27
0.1574992702552352 -0.0776267099299494 0.9860885824991684 216 30 33
0.1068087510966419 -0.1581678868277435 1.0109229459564091 13 43 41
0.0972175244944058 -0.1226846080458936 0.9698512995324656 89 135 70
0.2561324986930182 0.1229320130936716 0.9724943197515151 178 185 178
-0.0914591792728888 0.1995883648462584 0.9179329291228070 34 64 52
0.8560538063313134 0.5391235244909994 1.4148276505067474 89 74 77
-0.0660875683235530 0.0075161565005090 0.9896214869213200 149 95 57
-0.0712799093714480 0.0293389792863894 0.9848954598400526 28 32 31
-0.2028069463280784 0.1725167213009784 1.0025664911150824 49 70 63
0.0121978186131373 -0.0597779650181431 1.0502718729042519 224 183 197
0.2830185366839739 0.1754654368397473 0.9469128648419196 177 176 171
0.0441117548041687 0.2736375258653440 0.7919801779020875 138 138 138
-0.1859625704667194 0.0176512423351351 1.0550617752367417 40 65 46
0.1313100058042102 0.1917831579561951 0.8214373165782765 107 170 79
-0.0427268951694282 -0.1327003179653890 1.1692611052770694 193 155 168
0.3135322483496821 -0.0077838759828842 0.9602642467185034 207 209 206
-0.0918465952136579 0.0132757689541280 0.9927526848505540 224 216 214
1.0564727165058632 0.4710926468293398 1.5595957413611703 92 85 92
0.3135322483496821 -0.0077838759828842 0.9602642467185034 207 209 206
-0.0918465952136579 0.0132757689541280 0.9927526848505540 224 216 214
0.6878878918629412 0.5849268962280256 1.3223924094294082 82 72 81
0.0232698867219587 0.0294757440313891 0.8985137367314480 120 177 96
0.6878878918629412 0.5849268962280256 1.3223924094294082 82 72 81
0.2898305279025971 -0.0338603530586249 0.9596867964932825 199 206 199
0.7490341034711488 0.5636602441432861 1.3518130760608171 134 125 126
-0.1191752341670647 0.0093534936222317 0.9980798198817782 99 55 30
-0.0571627761821408 -0.0646677650017000 1.0633660646985013 79 178 217
0.1086733392072404 0.2296686307934533 0.8453230327932418 98 115 47
-0.1669530302573816 -0.0820118845064318 1.0749594736646237 89 182 199
-0.1819900674211322 0.1981886020490235 0.9529567206806732 25 64 45
0.0572682521174131 0.0421627354764326 0.8879496251976247 97 171 76
-0.5288887897148530 0.3872480063898817 1.8295205308720865 24 17 11
-0.0421122388534900 -0.1195222079669542 1.0802680247942600 76 190 226
-0.0421122388534900 -0.1195222079669542 1.0802680247942600 76 190 226
0.7312223116531856 0.5986922865535340 1.2894432196948276 122 113 118
-0.0512271673798324 0.0309425477713791 0.9794100423114300 15 12 19
-0.0510692083988410 0.0307642552891704 0.9780224032008670 15 12 19
0.9631350708906699 0.5116968563526270 1.4654079296733848 73 65 63
0.2863391163840483 0.1290486824099551 0.9553780710769633 188 189 181
1.1104545027828969 0.3420873410623621 1.6070345010784732 43 22 21
0.2161089318911719 -0.1155649243898162 0.9762534514134399 223 239 236
0.0056723550938378 -0.0734018965895559 1.0520365594614649 236 116 162
-0.2028599727533451 0.1856436630766044 0.9867314719720186 31 72 58
0.9427788588806812 0.5153443397227777 1.4596774605388223 96 93 104
0.2826961949266494 0.1968224409915095 0.9429116833487600 208 209 213
0.9427637086117726 0.5152529630203619 1.4598323874182981 99 92 100
0.0933883279145937 0.1964410252359707 1.0393555106515908 127 133 121
0.9202224548548391 0.5133742005071097 1.4618511000279524 90 92 89
0.3206261528655011 -0.0149424082929759 0.9660217694255895 214 214 216
0.7888443608875060 0.5464112767518640 1.4044634264497482 88 74 74
0.1018862442740019 -0.1171382491988480 0.9571284309693260 115 163 87
0.8381504922258484 0.5556383303703061 1.3759314389965898 88 67 72
-0.1744144139102036 -0.2050545539659788 1.1552718246229821 80 60 61
0.1427772045075989 0.1998787332576594 1.1149269883996504 127 143 130
0.0837021012704117 -0.1162535285770156 1.0411610535186451 36 42 28
0.8198456292639305 0.5568205651614222 1.3818552207304760 85 65 66
-0.1166939359791868 0.0375564402113576 0.9988819641868767 87 41 18
0.0830292084164673 -0.1127840531448272 0.9988723022345856 35 52 18
0.1820991596077713 -0.2063269970462996 0.9741360373977488 207 221 221
0.2733497852691319 -0.2190561329909127 1.0022376687238734 202 214 210
0.2767269161389848 0.0292538238986866 0.9666051182021362 210 206 197
-0.1278176847143355 0.1992278333564715 0.9378888187802273 103 113 112
0.2095100958818150 -0.0885108774094808 0.9883832591181362 136 155 136
0.2095100958818150 -0.0885108774094808 0.9883832591181362 136 155 136
-0.1360393530821627 -0.2646087433546763 1.1525076100465828 135 119 122
-0.1826662142632726 0.1938226468295113 0.9656738227820073 32 62 52
-0.1642007607661783 0.1757648200402304 0.9707525287064273 27 63 113
-0.0813716428497525 -0.1257357963912019 1.0648571408171086 108 200 213
0.1860928127214144 0.2317301250652084 0.8005903717151112 122 150 73
0.8110169311209838 0.5603510588466991 1.3732525303162029 126 115 119
-0.0335995991590513 -0.0475220991696035 1.0558292102413409 228 96 146
-0.0657547896279111 0.1824093946909386 0.9334636036332737 74 95 4
0.9378895712719381 0.5285032281877845 1.4345314994131064 71 68 75
0.7808786088860600 0.5700692071839661 1.3544094316634279 134 123 127
0.8596098391808380 0.5159626098025054 1.4633660150628902 93 89 88
0.7808786088860600 0.5700692071839661 1.3544094316634279 134 123 127
0.7020306704711321 0.6202919083499437 1.2443133574702165 86 77 82
-0.1549488923635765 0.1802217596739263 0.9721407148843967 30 30 22
-0.2291434640543189 0.0453164129454123 1.0808547364818677 22 99 119
0.8168992539306423 0.5623798827678064 1.3619124350314267 118 106 108
0.8333306552225452 0.5670179013416815 1.3604013057248032 92 73 75
0.6776466164851440 0.5907904680629701 1.3141222261147307 122 117 123
0.8333306552225452 0.5670179013416815 1.3604013057248032 92 73 75
0.3110063075158058 0.0581164457724725 0.9578642673502037 216 218 217
-0.0601144177061583 -0.2479140225658134 1.1142163983374993 185 187 176
-0.1565570512278882 -0.1254455676322862 1.0736397473431167 83 184 202
0.0850160423560168 0.2270902726307469 0.8764935554629969 139 148 143
-0.0601144177061583 -0.2479140225658134 1.1142163983374993 185 187 176
-0.4766387756345498 0.3643965043251088 1.8693754786665919 29 20 15
0.1014106664770218 -0.0729826019749804 0.9949312004263537 204 25 29
-0.1832421515320906 0.1719647054801184 0.9834427344679814 161 194 225
0.1719461988145311 -0.1593701830504618 0.9989167582157427 225 239 252
0.0536245452150740 0.0125969983736495 0.9069016313582727 148 217 124
-0.2309734057089267 0.2197115967848536 0.9393603703232289 14 14 14
0.1638289071094446 -0.1505078228705396 0.9924627517625781 229 242 251
0.0832353868779668 0.2032092320909920 0.9437380903718755 130 133 122
0.3463736041533149 -0.1680630640149426 0.9782602346684293 187 196 193
-0.0262796663683640 0.1814293843576990 0.9667832511734835 223 209 78
-0.2261332275885919 0.0557396955291285 1.0756547718761562 194 98 125
0.7637611921230115 0.5701895296455822 1.3546076469862027 94 79 82
-0.1461456810513902 -0.2419002654120918 1.1384117531263509 159 151 149
0.8578982998559689 0.5451264323278558 1.4050264275672784 121 112 117
0.0032797897578389 -0.0162475329186929 1.0259293908238052 57 72 65
0.8540819887563086 0.5512134833244647 1.3952464298286402 123 111 113
0.7602242752739738 0.5910065030441698 1.3020913747601923 121 111 112
-0.0702599267078694 -0.0708446672461408 1.0606703809180729 228 100 148
0.0680448758988532 0.2088734174691151 0.9225449291220268 140 145 141
0.7296351843878471 0.5965702849513822 1.3282376706620669 124 119 125
0.2957722776335477 -0.0054857583479029 0.9600111881204771 199 204 200
-0.4688918020477809 0.3932826985804361 1.8129904683697546 14 10 7
0.1164921932222045 0.1473399283980637 0.9876000463391681 94 150 77
0.0618083475149529 -0.1876275373538391 1.0263545354805448 163 165 160
1.0122421865550379 0.4685962635316622 1.5621033548873327 64 62 63
-0.2037785504310414 -0.0333026363659548 1.0779744149356316 203 62 115
-0.2635737569499481 0.2004988405492845 0.9600670616614277 24 28 31
-0.2037785504310414 -0.0333026363659548 1.0779744149356316 203 62 115
0.7369432975313148 0.5965834142836713 1.2987093426052008 106 96 97
-0.2635737569499481 0.2004988405492845 0.9600670616614277 24 28 31
-0.1245128012390842 0.1145056247108504 1.0010749446287626 96 52 25
0.0528523800359335 0.0172367113142220 0.9036645338183918 149 216 121
0.8342579502799981 0.5592846553888224 1.3682872908371981 135 124 128
0.8342579502799981 0.5592846553888224 1.3682872908371981 135 124 128
0.1758478348848367 -0.0209274715958757 1.0388707034196942 189 224 80
-0.0002810469762724 0.0140537834238292 0.9673337794504552 252 43 48
0.0258522291422726 -0.1664346142725807 1.0649127899375284 105 95 86
0.9957216087715172 0.4819340158204745 1.5325485978965436 84 85 87
0.1916654241174633 0.2801762256570585 0.8218856957628945 62 58 59
-0.0390949045806100 0.2262427567160927 0.8645710851724213 22 71 49
0.1118948933682448 0.2767259533220733 0.7845450014222305 145 143 144
0.6913371590424237 0.6079122834698240 1.2738754843161813 124 120 121
-0.2897674395203825 0.1927830604063786 0.9794915620034181 57 58 52
0.1000499152168371 0.2740502438109838 0.7868877613475176 145 145 147
-0.2575546323035639 0.1975742787360630 0.9650026416762181 21 26 29
-0.2578835323654042 0.1980307432505867 0.9661798884448479 21 26 29
0.0311581152259744 -0.1477918304668278 1.0682666583479334 137 133 124
0.6808244558889330 0.6324711325697548 1.2165244860891515 120 118 121
0.0866350392063856 0.1820663378691901 0.9852474422021034 128 134 124
0.0866350392063856 0.1820663378691901 0.9852474422021034 128 134 124
0.0722941446686433 0.2706293164761290 0.7911007651643843 162 173 167
-0.1725946033371912 -0.0461387725391865 1.0748612644836950 135 184 189
0.2258813934713474 0.0290790030543525 0.9720027149445903 59 75 26
0.2727859366594778 -0.0893835767271456 0.9721483422398925 127 102 95
0.2727859366594778 -0.0893835767271456 0.9721483422398925 127 102 95
0.2733224473352059 -0.0814348544930180 0.9766977134611092 200 197 190
0.6161076383668512 0.6282975698877209 1.2324015616430464 136 127 128
0.1791636335453375 -0.1957716966495177 0.9885588248099734 136 140 125
0.6140222527325493 0.6226822467420806 1.2433709134106361 99 84 91
0.6140222527325493 0.6226822467420806 1.2433709134106361 99 84 91
0.0599312229129242 0.1914853290113643 0.9629847736124838 143 151 140
0.2034877401964319 -0.1712643000069043 0.9677334695066305 149 157 144
-0.0972810262468459 0.2400120235680014 0.8506157737821943 27 63 59
-0.0118193232974543 -0.2113982687653636 1.0947648927418900 176 178 173
-0.1560841764021381 -0.2325190949752038 1.1419685853326602 43 24 18
-0.0211240957823568 -0.1961774963469514 1.0943855815365502 66 59 51
0.1150223638443324 0.1916832929064335 0.8423129924668143 97 157 61
0.1636641649280737 -0.1562118164529354 0.9954186917280078 52 77 81
0.1637104111358517 -0.1562182851367198 0.9954934107861126 52 77 81
0.8355841720486427 0.5467694123352052 1.3900584918613097 101 82 84
0.0524834748193181 0.2053312132481907 0.9288890387219142 128 135 127
-0.1104314349751078 0.2100673491228051 0.9121378518277476 47 45 46
-0.1009566472979562 -0.0708382985644272 1.0649790809466544 204 152 156
0.1843532608346330 -0.2521860585927731 1.0065452495834837 210 222 222
0.0517486291824209 0.1505528411726641 0.9798083991638610 126 134 119
-0.2054624973903571 0.2017413580550717 0.9593677042519262 22 54 39
-0.0923171781028129 0.2162375168486332 0.8969270070738867 47 51 52
0.2587581104521949 -0.2064722144501701 0.9827828314456704 220 230 231
0.1696767145963665 -0.2472169125085164 1.0058498545721291 207 221 221
0.2354186085156639 0.0200742647519893 0.9751281694627971 206 217 211
0.1746420363216098 -0.2360775560740248 1.0118904462981104 173 184 180
0.0605836058988628 -0.2350998570769337 1.0726255965860918 193 201 190
0.8339700590941547 0.5423979583696444 1.4038901625566116 131 121 122
-0.2866945161555444 0.1981641665757196 0.9786796744230913 75 110 88
1.0698643864818849 0.3495620936186469 1.5972062798251003 9 13 12
-0.1826584467434375 -0.0535780512605128 1.0754205238521093 212 87 131
-0.1217362752915246 -0.1048442484024140 1.0692721751470107 57 175 223
1.0698643864818849 0.3495620936186469 1.5972062798251003 9 13 12
0.1735772917590834 -0.1430604839478619 0.9940330564106803 219 240 243
-0.1117255193744954 0.0323141929992863 0.9973541501125750 125 66 34
-0.1217362752915246 -0.1048442484024140 1.0692721751470107 57 175 223
-0.0292177262970013 0.1858040251089884 0.9671520675061224 73 51 1
0.2043498138261203 -0.1625151181723126 0.9865066760906398 89 98 77
0.2214330666021952 -0.1198197237229991 0.9726315383191801 168 174 164
-0.1425031509466712 0.1710100177202788 1.0095934975946801 28 21 15
-0.2085045332820145 -0.1620418038971542 1.1455733069330887 117 95 97
0.2883830184228309 -0.0261419032724975 0.9595410322321446 216 225 220
-0.0417420932153656 -0.1994420071309211 1.1040921127825600 185 188 179
0.0975368783117408 0.2196505973789652 0.8611830730152790 80 112 37
0.8478022435300250 0.5645063523815538 1.3651071544357181 111 104 111
-0.1324819173799285 0.1798824265587856 0.9893288815601257 30 26 17
-0.1095854959287265 0.1888045403369071 0.9639313191203253 54 27 0
0.0186306230712203 -0.1507124382984672 1.0941772327339854 115 90 68
0.3047009573521153 0.0634745806278639 0.9403483210782025 181 182 176
0.0937542949848081 0.2176356349458562 0.8803501366023802 122 137 130
-0.1808223699533268 0.1796597122444246 0.9737022104018233 27 28 30
0.9933769346669521 0.4237919162957076 1.5656210158984238 54 15 16
1.0643343650559387 0.4501849483567879 1.5847699931095596 56 8 6
-0.1334894921405759 0.1916764166573870 0.9548540245005247 42 50 52
-0.1581422776274782 0.1873946725113619 0.9627346589573003 102 117 110
-0.1517975001534082 -0.1436477201811376 1.0939946923628256 219 228 233
-0.1334894921405759 0.1916764166573870 0.9548540245005247 42 50 52
0.0544906894522278 0.2213675287667217 0.8911581899954418 149 154 150
0.0544906894522278 0.2213675287667217 0.8911581899954418 149 154 150
0.0544906894522278 0.2213675287667217 0.8911581899954418 149 154 150
-0.0906007773081257 -0.0708561155727990 1.0648486904565884 75 185 218
-0.1461976241079216 0.1927634827621173 0.9516645429775531 73 79 79
0.2758380146215406 0.2046750702730565 0.9417205939301089 32 31 26
-0.1280723124780745 -0.0730519562698295 1.0686656730800825 57 176 216
-0.0204909755857372 0.2141277193432841 0.8907825928138775 31 34 25
0.2194908050628669 -0.0692637715739151 0.9641981756643563 97 100 83
-0.0945463296337561 0.2041271919937095 0.9272267846302225 44 54 55
-0.1389936833282596 -0.0019201991249792 1.0494919278994588 54 78 64
-0.1820081420225998 0.1880566395235517 0.9719731869906587 50 82 71
-0.1873513635347783 0.1954606577239523 0.9612590228630025 24 58 42
0.2147067095393660 -0.0082489292976783 0.9548868038967456 201 220 218
-0.2743243373939372 0.1821121401833145 0.9791760850070794 13 14 16
0.3302813901568978 -0.0114871442664162 0.9672922305239268 64 47 55
-0.0847253137986576 0.2137552718587882 0.9007474408486128 101 121 119
0.0174158774526183 0.2559815998925199 0.8248300617457175 136 141 135
-0.2773338120100645 0.1898293495991944 0.9785312634432223 105 105 97
-0.2710449149324263 0.1997445157278141 0.9633531280588038 96 97 89
0.0299770401200775 0.2516316222356508 0.8225739906466020 146 148 145
0.3597520061204165 -0.1628170162753335 0.9815852429392875 198 203 206
-0.0721786255919527 0.2402593084775435 0.8364486955633486 38 36 39
-0.0214984423543336 -0.1515727401402716 1.0913711146611538 177 179 165
-0.0214984423543336 -0.1515727401402716 1.0913711146611538 177 179 165
-0.1885479246582629 -0.0283462482591420 1.0682080259366860 18 18 20
-0.2636798470642305 0.1848407779052574 0.9863520284095285 16 16 16
0.1100506217939174 -0.2219566515444403 1.0101963603854789 224 234 235
0.1726704718509021 0.2577411760904633 0.8259501403416308 42 32 20
0.1982427964357189 -0.0083327037578816 1.0190137302879363 80 136 65
0.2581040620894436 0.0583935421911732 0.9875307148959598 45 31 18
-0.0077208139447051 0.1886818778375032 0.9069227736397952 28 23 19
0.1128851902086247 0.1624367480618068 0.9470811776439992 97 160 79
-0.1110517974058564 0.0145085612861107 0.9958653160085811 128 69 37
0.1128851902086247 0.1624367480618068 0.9470811776439992 97 160 79
0.0918581522397864 -0.1766119314033017 1.0326199104345235 49 35 22
-0.0241375130174255 0.0630447056358417 0.9704907211962531 2 8 4
0.2120976681049118 -0.0987261063614322 0.9927389803497064 142 169 152
0.2101775258970974 -0.1260301277584274 0.9896375882665132 191 212 205
0.1788038044618687 -0.1122427911308802 0.9986936524807800 138 210 110
-0.1558702432326166 0.0816166282210592 1.0459496883044537 102 168 97
0.2128748368738158 -0.0627931414435389 0.9773762180327759 172 194 182
-0.1246462400336506 0.0041518461756444 1.0308219543286854 11 13 10
-0.1227687270253972 0.0056108731753216 1.0402985977991179 14 16 13
0.0296459215457908 0.1626090770696831 0.9626081900815067 118 183 93
0.1828946735709549 -0.1762413061486117 0.9971557079061457 37 39 34
-0.1331712583527054 0.1536537780603752 1.0366235113737152 18 17 13
0.1561058791303687 -0.0940880499366360 1.0205232099049173 65 7 3
0.2137292005339871 -0.0466771098817157 0.9557072299354298 206 224 224
-0.1248161536429405 -0.1593229105843354 1.0803077511933674 219 225 225
-0.2504513793439796 0.2014088035928653 0.9646729568669049 113 135 133
0.1497462504051712 0.1848437184530862 0.8919921386492642 146 146 144
-0.6063154417906471 0.4935675962849072 1.5941443977844674 50 36 35
0.1726082089854031 -0.1363283255724770 0.9974017652502184 124 200 112
0.0061804072023907 0.2559383225594758 0.8253631893296590 118 120 106
0.2880297975865855 0.0208257719423758 0.9624032178713211 64 52 52
0.3365043908200486 -0.1678614177856514 0.9726701184478578 203 212 211
0.2254623645828468 0.0208148930288341 0.9675280595305676 186 215 210
0.2067134649890142 -0.1653106843345110 0.9702357796175451 149 163 150
-0.0430379338431990 0.2605168091023465 0.8238486848708522 171 177 163
-0.0906040065741594 0.2241801222651744 0.8795105993019994 54 80 69
-0.2022518967029256 0.0230800105822478 1.0770936017269961 214 193 162
-0.1508252263725657 0.2699477804605598 0.8434543458150910 119 99 98
-1.0033233943825060 0.2734189629923914 2.1444206834566772 72 47 42
0.3602567992318733 -0.1576441672909385 0.9868608056763303 193 198 201
-0.1978603237256277 -0.1327966364517519 1.0812917664758483 49 157 185
0.3047001871446881 0.1455432913180972 0.9536603936613114 181 197 196
0.2221188273858647 0.0317250421999529 0.9732744292415145 141 199 114
0.2123736523392966 0.1603722803742811 1.0308590751980602 110 116 116
0.2769729286844516 0.1344478586873144 0.9620220018339517 205 210 204
-0.2207801537744921 -0.1408313395443728 1.0851405055388041 174 108 122
-0.0656597880954198 0.2104096721730911 0.9134152785518018 22 64 44
0.1404673931130852 -0.1104272956898455 0.9546771554177662 128 207 115
-0.0855008758574389 0.0338829816475001 0.9892619773968147 44 45 40
0.3311126997434691 -0.1118166967372969 0.9780427504117996 210 219 214
0.3249607980898394 0.1422507167639731 0.9676389375583465 141 151 153
-0.5602704344454121 0.5284335699267407 1.5168964632821431 104 79 83
-0.9223677762703006 0.3097169723132878 2.0354277370753620 54 31 25
-0.9223677762703006 0.3097169723132878 2.0354277370753620 54 31 25
-0.6930579889755730 0.5312585166914207 1.5177542097393586 74 67 75
0.2714017683638651 -0.0950503178878318 0.9637182823875174 195 213 215
0.2680714580152334 0.0417731823117580 0.9770723605740259 192 195 188
-0.9648192757022200 0.2617424944240724 2.1448709156038830 70 45 40
0.3011896539739861 -0.0961270820754841 0.9744261885963235 188 207 201
0.2830868847504778 -0.0891048523205179 0.9761481327379157 196 211 204
-0.5589256962431094 0.5344709651722205 1.5025874590977182 80 61 63
0.3356582259463269 -0.0884121414364502 0.9766884934861756 190 208 208
-0.9573809691503683 0.3224121573214411 2.0112692862330577 78 57 52
0.2896156584657003 0.1656135769503927 0.9499986550847758 178 197 195
0.3512750499166788 -0.0703561663826844 0.9880215671530638 181 196 199
0.3108692063454436 0.0582767859296660 0.9580361728745240 209 228 226
-0.0692118895746333 -0.0783050352581708 1.0620448768838493 223 89 142
0.3008089006246584 -0.0642661784842495 0.9666746767831791 181 201 200
0.3008089006246584 -0.0642661784842495 0.9666746767831791 181 201 200
-0.0357853660196706 0.2749157304872775 0.8088383843880040 148 139 132
-0.1267244228203654 -0.0540400328128479 1.0685877103593286 53 171 209
0.1705955890965572 0.0636151227742442 0.9260778291422309 118 192 103
0.2892469464432261 0.1540182805211650 0.9515789226040472 184 183 178
-0.0020923159649669 0.2751389504117612 0.7985852096094626 134 130 131
-0.0875032836644949 -0.0525180986589068 1.0625774459399020 53 177 211
-0.0746353559378689 0.2265170758581068 0.8618248158299775 105 121 134
-0.0012382032274904 -0.2209270949243367 1.0897304005763824 195 200 193
-0.2005366355432384 0.1912743779179419 0.9737252062223052 58 78 69
-0.1115851229273985 0.0749187642921390 0.9947639001899029 114 61 30
0.2751906629272787 -0.0247153767744152 0.9654959847096620 182 202 201
0.2663576730241065 -0.0229022880064704 0.9717645432452920 189 214 210
0.2712083199372893 -0.0135321723974507 0.9656269005463455 210 217 210
-0.1883978411633533 0.2431910392754712 0.8795858547332371 118 114 111
-0.1628605327931069 0.2593359103936902 0.8535524581128004 127 116 110
0.3069387045118444 -0.0274737212948049 0.9584522204768759 200 218 218
-0.1979800622877815 0.2640957274087132 0.8627665889304825 126 107 103
0.1759778023015571 -0.0209717779734421 1.0375888979672430 183 219 83
-0.1240440122569203 -0.0152111685115456 1.0456460352420780 56 68 54
0.2929606427525416 -0.0064163465118852 0.9571318816478150 185 201 200
-0.6567970220215937 0.4798224855664573 1.6285166208712181 53 41 41
-0.0207307728148860 0.2559657051636811 0.8234861374241761 118 114 113
0.2155139191977591 -0.2547057061762443 0.9985825440859558 189 200 206
0.2905610682719077 -0.0005221130496516 0.9580950971357198 221 230 227
0.1586403554233383 0.0880480953340116 0.8986563634059965 94 160 70
-0.0877684190043964 0.0083804905510721 0.9929605068488504 133 70 37
0.0374954040981633 -0.2220865945814530 1.0841067859753988 161 164 157
-0.2066045518364549 0.2602937737465764 0.8685146121971860 120 106 105
0.1132525989607518 -0.2029960917973362 1.0295791951416087 165 170 164
-0.2055463858084490 0.2633762743992463 0.8636963968334823 124 104 97
-0.1310141234392740 0.1081892622407849 1.0020095227750041 113 56 26
-1.0088998412797896 0.2550893659314385 2.1413917963385223 66 41 34
-1.0088998412797896 0.2550893659314385 2.1413917963385223 66 41 34
0.1426750066342885 -0.2414292325808014 1.0109415557940340 209 218 223
0.2451934199021405 -0.2366187032348536 0.9910724201412877 197 210 216
0.1163723508102567 -0.2212327345123478 1.0085453139299205 224 233 232
-0.0281735065516707 0.1244589587602127 0.9682473849842677 187 146 144
0.0362004965968219 0.2905022599780021 0.8612346542780193 162 169 161
0.1128652420985762 -0.2144549636606094 1.0110785766293660 208 224 221
0.1048754256426665 -0.1954660904280903 1.0402171364989727 184 184 186
-0.9000418386857061 0.3289775766919492 1.9984843004070370 74 53 50
-0.0123490039996031 0.2580689171592948 0.8206615895384222 164 166 155
-0.0058049200712738 0.2662126794246788 0.8145390875371834 167 175 160
0.1715103484650307 -0.1520330538885276 0.9963980487236860 39 54 59
0.0148207009707362 -0.2450825049929137 1.0877932102101902 194 196 195
0.1314384011875852 -0.0025750323008893 1.0327179196975220 104 78 17
-0.0973378648789135 0.0747459080771834 0.9927732856423547 200 199 194
-0.0110635721011022 -0.1244474127136378 1.0559625745739376 59 188 227
0.1293694507479836 0.0110453628730405 1.0279911431616604 200 232 99
-0.1122990454783327 -0.1015587698109697 1.0680489616049700 179 216 172
-0.0728637577849374 -0.0698628945614928 1.0621847827934199 228 94 145
-0.6207564031347200 0.4691606090528692 1.6739024886758951 48 32 32
0.3096328483057507 0.0359341689211841 0.9575781784874257 187 206 202
0.1648500714831594 0.1057672238366196 0.9040446859085712 110 175 85
-0.1665712390452777 0.2542926085255054 0.8623258497619524 154 150 141
0.3313385523032848 0.0397297243000165 0.9696622101742474 165 171 171
0.0060709071336031 0.2494322434223593 0.8278043578674769 46 28 18
-0.0118159824132211 0.2515942491892411 0.8273867499973094 44 27 17
0.1443682042766439 -0.0105825194965616 1.0324153777122584 106 83 13
-0.0547427373896156 0.2746944430689238 0.8147152140986942 135 117 113
-0.1797113587554354 0.2636793990152127 0.8549362550444499 132 112 105
0.2554850451944029 0.0586502567160384 0.9830557342939797 81 78 71
0.3324878369856730 -0.0175624438456273 0.9685095556328710 174 174 162
-0.0778448450633575 0.0810180970046608 0.9822994781081062 216 217 212
0.0739639717588728 -0.1897215645922743 1.0188225219617817 199 209 210
-0.1529022738821466 0.0367778745975322 1.0490216084439699 90 175 120
-0.1822067846997946 -0.0193260394744731 1.0723772185249352 19 17 18
-0.2196588070075375 0.0756955490365560 1.0764373546444648 172 127 121
-2.2396772425609179 -0.7064491666552188 2.9246577995412975 46 21 16
0.0355222386922287 0.2242831064309933 0.8682715835592517 105 209 112
-1.2266064643297538 0.4458388827990409 1.7405207932627862 53 29 25
-0.2597571456839023 0.1710782109580876 0.9984141827017492 28 27 35
0.2369862116351666 -0.1298340101600138 0.9600123060366866 228 238 239
0.2998685926824625 -0.1266858421902272 0.9562038109572150 226 235 234
-1.2810352436118806 0.4578124501980454 1.7273584644023137 72 49 41
-1.2810352436118806 0.4578124501980454 1.7273584644023137 72 49 41
-0.0696274952506954 -0.0026937346095120 0.9849855353872312 93 46 20
-2.2429983490669412 -0.6430439485569615 3.0626687943911324 77 37 25
0.2679199917422589 -0.0261805835521908 0.9732177623099618 197 217 215
0.1639142817703415 0.0995793357826959 0.9018791821478903 72 134 51
-2.2683128141104811 -0.6217394494605839 3.0069099445883660 60 29 24
0.2390472538883528 -0.1092412610825634 0.9577460196337532 216 228 226
0.2785868764508882 -0.1088895217133566 0.9611670942967379 220 232 230
-1.3392202458698330 0.3652057566774423 1.9330545855677224 70 47 33
-2.2927244657080701 -0.5723601182629551 2.8328923602912233 58 25 16
0.2294579791326058 -0.1472581829258200 0.9607417021596472 207 219 217
0.1494145217341468 -0.0990656057112297 0.9521278709933396 94 18 2
0.2221389732871783 -0.2212925284196073 0.9820113962052845 220 230 232
0.1446253292873602 -0.1033715739941239 0.9459674711454561 105 152 74
-0.1287339734823873 0.2172850425979169 0.9001856781823859 41 67 64
0.2208543457627627 0.0071443673282889 0.9632174148490228 192 219 214
0.1783182285769909 -0.1444211216653302 0.9954669835795381 59 72 88
0.2382643841236389 -0.1020260173570461 0.9569334983022606 209 223 223
0.1783182285769909 -0.1444211216653302 0.9954669835795381 59 72 88
0.1433852944674869 -0.2225353871201441 1.0122980653672633 175 187 177
0.3005451409291272 -0.1085795475849150 0.9586739084181016 195 209 212
0.2172594578763322 -0.2177034611929908 0.9797803010306529 218 228 227
0.2581431714677889 -0.1006756485708045 0.9570689988114656 221 235 236
0.2905899999021705 0.0757758778902827 0.9600878348750039 195 214 210
0.2885327452091371 -0.1032157073983261 0.9642264559570028 180 192 192
0.2126907376027629 -0.1427204633259295 0.9959403777712648 131 139 128
0.2539679251454620 -0.0990657140562504 0.9592372715991110 203 217 217
0.0239053479587754 0.2104524781300262 0.9149294378833706 35 61 16
0.2525801557946505 -0.0954858904809669 0.9587086480865965 212 223 225
-1.4374290223854729 0.3908520729469872 1.8688944281596438 62 38 34
0.2375690598105074 -0.1344900217977176 0.9623257668147741 209 219 220
-0.0448032570573140 0.2490736102504531 0.8253494682024013 61 97 85
-0.0872599676667763 0.0455920866017050 0.9902839710039880 3 3 1
0.2036959415207229 0.0599879854610110 0.9328551663644978 117 187 99
0.1815517188737593 0.1128035558289438 0.8936555279093652 141 134 141
0.2307122514406629 -0.2115088309111677 0.9849366287252872 231 240 239
0.0867691653082938 0.0377328245831564 1.1893537621101558 197 239 131
-1.2761015261166160 0.4496694079455913 1.7424091056218682 75 50 45
-0.0283765364631969 0.0394120571423603 0.9725165136821048 78 0 0
-0.0283765364631969 0.0394120571423603 0.9725165136821048 78 0 0
-2.2122306765206554 -0.6577773735319550 3.0900979686697303 81 37 24
-2.2272896560367439 -0.6279160037711092 3.0114362218465001 69 35 26
0.1106825851608966 -0.0739941989098803 0.9914889688939240 243 133 182
-2.3286808456960508 -0.4922280697936875 2.7587080615740049 68 35 28
-0.0808002863190051 -0.2254599504551221 1.1110966864154326 186 185 181
0.1565450069617266 0.0941213086501322 0.8954205778888568 93 159 72
-2.2937759781877030 -0.6339245886091365 3.1054831745116407 39 22 12
0.1566908747977616 0.1002253429034228 0.8978903358909572 104 173 84
-2.3312184535726668 -0.4614098666144524 2.8033263351428714 38 21 13
0.1501474060104624 -0.1083135180784188 0.9477520376122217 137 214 120
-0.1030214684542950 -0.0559651726713841 1.0446482431594495 198 110 135
-1.2605215612108820 0.4700521611317595 1.6936710318413124 52 31 26
0.0215581684116578 0.2120979007373346 0.9086537178565185 38 83 16
0.1538653544803228 -0.1026095112329662 0.9526827410858741 110 168 92
0.2092579728063584 -0.1896912404269227 0.9632978328169195 214 225 227
0.2432744372479669 0.0427125207863184 0.9814614686907914 178 198 196
-1.2600216773174377 0.4088593102452368 1.8370266840271736 47 28 22
0.2546768009297545 -0.1030427988099488 0.9577648460952808 230 240 239
0.2944734416796649 -0.1036625935597131 0.9637787577831173 181 192 194
0.1783556223053921 0.0754101060841381 0.9198927826008055 80 160 71
-1.3068970581211514 0.3479094203489345 1.9761549744822899 49 26 20
-2.3776264882781644 -0.4066434842176564 2.7428876598178129 33 18 11
-2.2622510626844150 -0.5431864443572556 2.9492365142660528 67 28 23
0.1546056674479418 -0.0526846943983439 0.9737949019061962 96 158 72
0.1489511177468911 0.1068839914489221 0.8951908946796017 112 176 89
-2.3238141285941301 -0.5083233102586918 2.7879196582964187 76 36 24
0.1740656658545520 -0.0470806708502056 1.0031191736158036 53 86 31
-2.2768225201398478 -0.5057388920326673 2.8286735482125094 75 37 28
0.0665586353438571 -0.1773067676699404 1.0293210984904122 137 140 131
-0.2109480184118019 0.2059851581845090 0.9423906858772272 20 51 35
-1.3058241723566828 0.4296282827157635 1.7918468718645226 68 44 40
-1.3058241723566828 0.4296282827157635 1.7918468718645226 68 44 40
-0.0998276985927923 0.0877293284116412 0.9917923079591318 207 182 40
0.2989861050162810 0.0255343385196359 0.9609985011347931 168 184 183
-0.2425957140992182 0.1006875365345205 1.0835961210180263 64 43 38
0.1483726820878965 0.2577648686029112 0.8169082433974860 147 150 143
-2.2661582780153862 -0.5454367836466397 3.1257925064018588 56 23 14
-0.1920562992476057 -0.0634564150686879 1.0778991997299121 139 158 173
0.1483726820878965 0.2577648686029112 0.8169082433974860 147 150 143
-0.1475972815365959 -0.0460259295000697 1.0717921979017724 132 29 56
0.2276895641447619 -0.1563835719261982 0.9608334500076922 219 225 225
0.1513576337264213 -0.0400777656236234 0.9829148070595071 52 90 33
-2.2896869171408518 -0.4928511645876474 2.8537599880744744 28 17 13
0.0472026297564444 0.2755077160619243 0.7896974053031596 166 171 167
-1.1563899510991151 0.4249776092751556 1.7815841080025590 62 34 31
-0.1645709618587138 -0.0445835172503018 1.0732590336352394 100 191 222
-0.1569064734567201 -0.0454145454898025 1.0726602396014433 109 177 198
0.1702938624912444 -0.0659839113206577 0.9849265852739926 114 176 90
-0.1572478013828407 -0.0454811478844057 1.0731260157569142 109 177 198
0.2385509745979523 -0.1470919555739179 0.9646017173506568 224 230 230
-0.1525639967940333 -0.0096682153885594 1.0500537815879982 53 74 59
0.1586026635775154 0.0877499703583499 0.8984942583159580 94 160 70
-1.5158348713973511 0.3682301321556187 1.9588094478912677 48 27 22
0.1797777087601595 -0.1327803563717481 0.9970485187601948 130 194 110
-2.2618545901421370 -0.5053775379703170 3.1353347825381093 28 19 14
0.2338670555974142 -0.1330402706242973 0.9599309086932959 224 238 239
0.2305805308099440 0.0362495007242378 0.9717195498656732 158 188 178
-0.2287413549892346 0.1998415047595910 0.9591292651556721 23 50 43
-0.2078127463363917 -0.0335414457800017 1.0788129279627656 191 76 117
-2.3120560264346186 -0.4300665327195653 2.7278887123477906 42 21 16
-2.2766474035874587 -0.5779563599259414 2.8692368003722142 67 33 24
-0.1771995654001254 0.0964010860682205 1.0490507928646147 23 75 29
-1.4637158908161620 0.3794565754148331 1.9176354798859649 50 26 24
0.2444693206537799 0.0518882052060934 0.9847293868178018 192 213 206
0.0840511979150653 -0.1890614241402649 1.0225156677233944 183 189 185
0.2496828656292225 0.0764083721279574 0.9865030218702683 161 177 176
-2.2465095355065960 -0.5791524612499890 3.1324358746104428 54 24 14
0.2348118626641551 -0.2152943711909253 0.9870188710154710 233 239 239
0.2241003494318275 -0.0350057100959695 0.9474995473488401 83 80 75
0.2764532747877259 0.0520544066073246 0.9706135912189469 200 220 219
0.2348118626641551 -0.2152943711909253 0.9870188710154710 233 239 239
0.1542033486356269 0.0792229840601753 0.8964192483458120 56 98 34
-0.0549260574720825 0.1817205202649474 0.9313062055771339 230 239 98
-2.2727180407318666 -0.4568951542085846 2.9098951496676975 32 17 12
0.2245507549996627 -0.0185665861078913 0.9696987094626228 196 212 209
0.3139762786391002 -0.0199209147425488 0.9602919403007066 182 201 199
0.2780047574457949 -0.0004240264446675 0.9645532471565683 190 210 209
0.2780047574457949 -0.0004240264446675 0.9645532471565683 190 210 209
0.1474088951792904 0.1031318036564126 0.8947192524373897 89 140 65
0.1414043445277730 0.1110561282499918 0.8895478479486295 91 139 63
0.1444834572682011 0.1154920634908433 0.8864599092480474 114 171 92
0.2371138424473331 0.0263159334257006 0.9733891492440819 173 192 190
0.2352376050019453 0.0803293089036391 0.9887833542257846 164 194 194
-2.2176336683137707 -0.5845926630370252 2.9519541576245500 42 22 15
-2.1741369899023160 -0.6835739733631777 3.0668093787335495 78 34 23
0.2610602873081976 0.0629144088239194 0.9792843958140877 79 72 79
0.2610602873081976 0.0629144088239194 0.9792843958140877 79 72 79
-0.0040536800898534 0.2646700097160532 0.8115869509818322 167 175 160
-2.2709190578977028 -0.4754098773465361 2.8739091248938240 71 36 30
-2.3084890963824636 -0.4583793117922394 2.7191204760050236 69 34 30
-2.2709190578977028 -0.4754098773465361 2.8739091248938240 71 36 30
-2.2277734897011694 -0.5120785124434668 3.1524061972104467 5 5 5
-2.2649615848264077 -0.5348015273678669 2.8652333871899156 77 36 30
-0.1450429489056074 -0.1413650140405515 1.0926566455029816 212 223 229
0.1394342654690384 0.2579037727563764 0.8158436652620628 164 170 156
-0.0835552554701575 -0.0191991476173349 1.0412389038180454 64 74 66
0.2769316292882671 0.0239970991893983 0.9675710474951512 69 54 49
0.2769316292882671 0.0239970991893983 0.9675710474951512 69 54 49
-0.1514177428321440 0.2062530631674622 0.9307200486661489 186 198 196
0.1296615227283086 0.0112183447790501 1.0278847619697342 183 224 84
0.1802640634381707 -0.1023361681416230 0.9818899369026697 117 183 93
-2.2427649584229554 -0.5975039513098496 2.9193011206573432 64 32 21
0.2341564856179852 0.0378610633803984 0.9753558167049829 150 169 163
