ply
format ascii 1.0
comment Created by CloudCompare v2.12 beta
comment Created 2022-03-27T14:10:26
obj_info Generated by CloudCompare!
element vertex 1698
property float x
property float y
property float z
end_header
0.094393 0.009206 0.662150 
0.100015 0.011659 0.661992 
0.099684 0.011450 0.660534 
0.098411 0.011663 0.659808 
0.099021 0.010677 0.661430 
0.096966 0.032170 0.677282 
0.098018 0.010252 0.662760 
0.099244 0.014346 0.659281 
0.094222 0.010169 0.659213 
0.095546 0.013075 0.656987 
0.097016 0.009107 0.664965 
0.093617 0.028509 0.664472 
0.094567 0.011377 0.657637 
0.100520 0.002167 0.677893 
0.099582 0.013127 0.659192 
0.098078 0.017189 0.659716 
0.098989 0.012265 0.658262 
0.097117 0.012637 0.658145 
0.099403 -0.000235 0.679200 
0.097859 -0.000842 0.678692 
0.093876 0.014194 0.654261 
0.094353 0.013305 0.654825 
0.093940 0.012207 0.655640 
0.096941 0.013266 0.656662 
0.096258 0.014223 0.656170 
0.080636 0.009191 0.658167 
0.092034 0.015212 0.652575 
0.058262 0.057877 0.665521 
0.074281 0.056917 0.668281 
0.091949 0.011755 0.654668 
0.101390 0.005070 0.682511 
0.100490 0.004060 0.683388 
0.089769 0.014840 0.650753 
0.094310 0.015400 0.653895 
0.092930 0.014659 0.653382 
0.089812 0.008025 0.663527 
0.088591 0.009379 0.657500 
0.085692 0.011917 0.652515 
0.086431 0.003950 0.672289 
0.095146 0.035086 0.670591 
0.094209 0.036736 0.671167 
0.044435 -0.002043 0.680216 
0.044323 -0.004088 0.685998 
0.041537 -0.004982 0.683920 
0.091820 0.035045 0.667095 
0.097007 0.008259 0.666438 
0.094783 0.001507 0.675833 
0.097217 0.003456 0.675158 
0.101370 0.004958 0.680730 
0.084215 0.033155 0.711574 
0.092388 0.003023 0.674309 
0.096148 0.003716 0.674217 
0.094728 0.004903 0.672034 
0.099961 0.005073 0.674248 
0.094042 0.039527 0.672586 
0.095215 0.042369 0.674423 
0.090247 0.037844 0.668260 
0.084734 0.033536 0.713492 
0.095992 0.040716 0.675563 
0.093976 0.032475 0.667489 
0.095010 0.040137 0.673580 
0.095987 0.039042 0.672990 
0.096327 0.035093 0.675094 
0.098365 0.045674 0.689848 
0.097666 0.049459 0.684280 
0.097872 0.045921 0.684399 
0.096178 0.036502 0.671506 
0.096262 -0.002112 0.682350 
0.088780 0.041353 0.669459 
0.080569 0.059191 0.671356 
0.083108 0.030964 0.708346 
0.082612 0.031496 0.709713 
0.081175 0.050571 0.669051 
0.087265 0.047586 0.670973 
0.086362 0.051753 0.671998 
0.092928 0.053362 0.676794 
0.087275 0.056270 0.674440 
0.096209 -0.001910 0.680768 
0.097951 0.048576 0.688457 
0.097142 0.052577 0.686989 
0.094911 0.050539 0.677042 
0.098476 0.036852 0.684994 
0.097932 0.042614 0.684363 
0.096835 0.031449 0.669077 
0.099033 0.007202 0.668745 
0.097243 0.007091 0.668911 
0.097227 0.014979 0.692675 
0.097459 0.035632 0.680729 
0.099104 0.022002 0.683652 
0.099528 0.011172 0.674389 
0.097131 -0.002703 0.685762 
0.099790 0.001114 0.678927 
0.100037 0.004240 0.675085 
0.099355 0.003593 0.675496 
0.099047 0.001966 0.677853 
0.099811 0.005489 0.677070 
0.100183 0.002102 0.683128 
0.099511 0.002780 0.676786 
0.098632 -0.000601 0.680483 
0.099967 0.031484 0.694926 
0.099621 0.034719 0.691861 
0.097331 -0.001301 0.680187 
0.097782 0.002090 0.677060 
0.097676 -0.001424 0.683107 
0.100625 0.000734 0.680094 
0.095409 -0.000666 0.689890 
0.094956 -0.004018 0.688119 
0.097122 -0.002102 0.687824 
0.098687 0.041251 0.692117 
0.099954 0.036244 0.697369 
0.100351 0.000150 0.680985 
0.101088 0.001925 0.679738 
0.101080 0.001283 0.681462 
0.101140 0.007798 0.683459 
0.101466 0.006382 0.683162 
0.101441 0.009060 0.679765 
0.095449 -0.002741 0.685376 
0.096530 -0.002076 0.684195 
0.096065 0.059552 0.685470 
0.100818 0.013973 0.686850 
0.091032 0.061706 0.680879 
0.092205 0.059019 0.679848 
0.093249 0.029854 0.700940 
0.099240 0.006201 0.670791 
0.084084 0.059227 0.673483 
0.071495 0.066465 0.673189 
0.108395 0.059118 0.721973 
0.096398 0.070842 0.697181 
0.087831 0.074433 0.686815 
0.085707 0.075355 0.684920 
0.089741 0.058199 0.677740 
0.083962 0.031508 0.708878 
0.097782 0.046216 0.703041 
0.097582 0.050908 0.697095 
0.093726 0.037105 0.704298 
0.100004 0.032711 0.696149 
0.095138 -0.002052 0.680044 
0.096279 -0.001563 0.679345 
0.096855 0.050598 0.680158 
0.094930 -0.002783 0.683317 
0.092522 -0.000531 0.677975 
0.094782 -0.002565 0.681397 
0.093436 -0.002604 0.680953 
0.094079 -0.002197 0.680122 
0.037873 -0.004334 0.680604 
0.038839 -0.006094 0.683793 
0.037312 -0.008034 0.684348 
0.009750 0.019589 0.707084 
0.023810 0.028131 0.696461 
0.034925 -0.004024 0.677698 
0.038867 -0.003111 0.679084 
0.028072 0.007279 0.685078 
0.036577 -0.000977 0.672866 
0.034591 -0.001445 0.673021 
0.039824 0.002616 0.668194 
0.036408 0.001219 0.668790 
0.046821 0.068348 0.670169 
0.055361 0.068850 0.671248 
0.035180 0.001880 0.666889 
0.049261 0.061547 0.669904 
0.060373 0.064104 0.669641 
0.036524 0.003557 0.664532 
0.034603 0.002340 0.665973 
0.045857 0.071968 0.671315 
0.049621 0.072846 0.670623 
0.042537 0.073476 0.675962 
0.022034 0.039245 0.707188 
0.026430 0.037008 0.700582 
0.079949 0.027772 0.711083 
0.030945 0.052056 0.699342 
0.030668 0.057919 0.696521 
0.041193 0.067485 0.676223 
0.038777 0.068718 0.679973 
0.036869 0.065765 0.681666 
0.027522 0.071704 0.685277 
0.023082 0.072210 0.684845 
0.025725 0.073854 0.681213 
0.029454 0.073491 0.684205 
0.028751 0.070456 0.687874 
0.018738 0.073733 0.680689 
0.021544 0.073508 0.681987 
0.019145 0.072871 0.682158 
0.017898 0.072155 0.683791 
0.022960 0.073666 0.682110 
0.085343 0.076715 0.684657 
0.026732 0.073717 0.681050 
0.020410 0.073698 0.681087 
0.030416 0.011974 0.672102 
0.032316 0.004427 0.670011 
0.034913 -0.006464 0.682054 
0.036104 -0.005204 0.681053 
0.037876 0.074664 0.681067 
0.039650 -0.006970 0.684808 
0.044890 -0.008072 0.689105 
0.042568 -0.007169 0.686734 
0.049644 -0.009198 0.693056 
0.080089 -0.010770 0.694907 
0.046596 -0.011567 0.691838 
0.045657 -0.009172 0.689719 
0.038539 -0.007162 0.684295 
0.039988 -0.005117 0.682893 
-0.018461 0.027336 0.734901 
0.008860 0.039667 0.719660 
0.046246 -0.008191 0.690217 
0.029937 0.031054 0.693726 
0.047943 -0.009925 0.691706 
0.081460 -0.009905 0.693415 
0.076736 -0.009315 0.695848 
0.076378 -0.010301 0.696654 
0.027091 0.031229 0.697595 
0.050771 -0.008114 0.693680 
0.048614 -0.009047 0.692205 
0.081682 -0.005527 0.689686 
0.089246 -0.007383 0.693234 
0.084317 -0.008528 0.691498 
0.088924 -0.005059 0.703244 
0.102129 0.007680 0.722506 
0.089504 0.002549 0.708285 
0.075207 -0.009410 0.696709 
0.075430 -0.006086 0.693779 
0.081620 -0.010454 0.695153 
0.083459 -0.009237 0.692804 
0.082789 -0.009817 0.694533 
0.083271 -0.010334 0.697773 
0.051715 -0.011074 0.694769 
0.050878 -0.009991 0.693911 
0.049711 -0.010632 0.693184 
0.084590 -0.008915 0.694999 
0.083029 -0.009810 0.696376 
0.079055 -0.010841 0.696649 
0.076888 -0.011095 0.697445 
0.073240 -0.011834 0.697811 
0.071770 -0.011820 0.697826 
0.078816 -0.012406 0.698195 
0.078156 -0.011132 0.697357 
0.082307 0.019263 0.709349 
0.068972 -0.008074 0.697228 
0.061939 -0.014017 0.699067 
0.081175 -0.010827 0.696608 
0.067241 -0.005637 0.694041 
0.072783 -0.010907 0.697553 
0.090617 0.011432 0.699079 
0.066047 -0.010775 0.697674 
0.058631 -0.011045 0.697650 
0.055154 -0.008901 0.695789 
0.056064 -0.012327 0.697368 
0.029817 0.033810 0.696847 
0.031027 0.037712 0.692414 
0.059237 -0.014027 0.699303 
0.078402 0.034664 0.724490 
0.062565 -0.008566 0.696441 
0.061354 -0.011433 0.698000 
0.023864 0.031752 0.700983 
0.058968 -0.009676 0.697342 
0.055860 -0.013997 0.698447 
0.054080 -0.013878 0.697239 
0.051241 -0.013121 0.695191 
0.066224 -0.013721 0.699029 
0.072278 -0.013271 0.698669 
0.068997 -0.011917 0.698236 
0.061649 -0.012654 0.698489 
0.063039 -0.012475 0.698518 
0.057498 -0.014123 0.698917 
0.081803 0.021062 0.711348 
0.085875 0.030735 0.706308 
0.094632 0.034588 0.702366 
0.092894 0.033057 0.701688 
0.088172 0.009582 0.713471 
0.094886 0.009622 0.719326 
0.093627 0.019042 0.724779 
0.081935 0.015448 0.711128 
0.082821 0.017152 0.710936 
0.083099 0.018733 0.708181 
0.084702 0.017565 0.707133 
0.081263 0.022316 0.711527 
0.081778 0.022301 0.713220 
0.081722 0.020413 0.709696 
0.082076 0.019932 0.708475 
0.081569 0.023214 0.708038 
0.097306 0.024065 0.696508 
0.081149 0.021858 0.710111 
0.082246 0.024112 0.713750 
0.082954 0.026200 0.707116 
0.086632 0.025934 0.704838 
0.087627 0.011708 0.701007 
0.085755 0.008417 0.703095 
0.079642 0.029047 0.712322 
0.079876 0.029327 0.710530 
0.080741 0.023278 0.710795 
0.087452 0.016967 0.704604 
0.083786 0.023007 0.722045 
0.081434 0.019762 0.713094 
0.094656 0.033450 0.734240 
0.082809 0.045008 0.732374 
0.079805 0.041370 0.729402 
0.096435 0.043577 0.739406 
0.083288 0.033397 0.714619 
0.078438 0.033777 0.724328 
0.083111 0.016900 0.715107 
0.107169 0.040716 0.745792 
0.027056 0.052539 0.714220 
0.031088 0.052643 0.712544 
0.076763 0.038236 0.726409 
0.081565 0.036275 0.727703 
0.035883 0.053007 0.708972 
0.033485 0.054483 0.705757 
0.056101 0.052545 0.716782 
0.071778 0.043216 0.723079 
0.075436 0.039811 0.722693 
0.089756 0.034308 0.705919 
0.088751 0.033545 0.706511 
0.083873 0.034915 0.717877 
0.080657 0.032898 0.723737 
0.083023 0.032376 0.725172 
0.078825 0.035527 0.722520 
0.085905 0.034172 0.729244 
0.082999 0.035793 0.718983 
0.072702 0.046502 0.726962 
0.079578 0.049520 0.730420 
0.076818 0.036420 0.724166 
0.081711 0.036413 0.720087 
0.078087 0.038027 0.721732 
0.084611 0.034153 0.715537 
0.083092 0.028894 0.722398 
0.081038 0.029774 0.719245 
0.088778 0.055443 0.724711 
0.096399 0.054952 0.710158 
0.084145 0.033813 0.716815 
0.083449 0.033111 0.716017 
0.086744 0.035773 0.712285 
0.095562 0.035584 0.702403 
0.088740 0.036944 0.712582 
0.082734 0.031786 0.715878 
0.081761 0.029455 0.713659 
0.085960 0.035027 0.714541 
0.080410 0.029767 0.713096 
0.081843 0.030429 0.708483 
0.082271 0.030016 0.715948 
0.081044 0.028559 0.713408 
0.061687 0.049380 0.721143 
0.080938 0.024590 0.711971 
0.082797 0.031358 0.712918 
0.080283 0.030367 0.711787 
0.097444 0.021513 0.695369 
0.030663 0.044309 0.701308 
0.029618 0.044943 0.702898 
0.086294 0.035148 0.710383 
0.085266 0.033654 0.709974 
0.081711 0.031317 0.711411 
0.093057 0.013068 0.697130 
0.029436 0.041580 0.701652 
0.031036 0.043587 0.699975 
0.079829 0.026584 0.710140 
0.080395 0.026193 0.711524 
0.080534 0.029371 0.708848 
0.031271 0.046134 0.696247 
0.029443 0.040812 0.698617 
0.095544 0.037476 0.704883 
0.093791 0.035591 0.703154 
0.095422 0.036656 0.703448 
0.031386 0.051831 0.708169 
0.028107 0.049115 0.707581 
0.028409 0.044800 0.704189 
0.024620 0.044087 0.707227 
0.029152 0.048252 0.706381 
0.028222 0.051823 0.710895 
0.023043 0.048567 0.713063 
0.024342 0.047022 0.710577 
0.027896 0.050523 0.709742 
0.029295 0.045845 0.703939 
0.037001 0.052567 0.711999 
0.016883 0.059952 0.704682 
0.068881 0.052288 0.724908 
0.016594 0.062383 0.700888 
0.007073 0.059561 0.702483 
0.026303 0.062277 0.701136 
0.028243 0.061326 0.699614 
0.031560 0.055102 0.692113 
0.028928 0.064380 0.693074 
0.030018 0.066212 0.690593 
0.029657 0.064012 0.693637 
0.090902 0.056361 0.721787 
0.028162 0.066560 0.690361 
0.031697 0.062331 0.690700 
0.030917 0.060516 0.694532 
0.087515 0.056365 0.723146 
0.026544 0.059820 0.705766 
0.022956 0.055077 0.714893 
0.039301 0.054708 0.715406 
0.030552 0.058122 0.701694 
0.049323 0.052873 0.717157 
0.083070 0.056417 0.724230 
0.082220 0.055998 0.722542 
0.097357 0.055705 0.723005 
0.068832 0.048840 0.720340 
0.083408 0.052883 0.720508 
0.084466 0.057295 0.723233 
0.071953 0.052425 0.720240 
0.088880 0.056864 0.721736 
0.094715 0.054789 0.711303 
0.085791 0.055247 0.725982 
0.087822 0.054894 0.726326 
0.087921 0.049717 0.734048 
0.081778 0.052580 0.729421 
0.098007 0.049266 0.706615 
0.094120 0.038182 0.705807 
0.095744 0.050857 0.735571 
0.083051 0.054851 0.726700 
0.023607 0.058422 0.708745 
0.011907 0.053873 0.713356 
0.014319 0.047151 0.720437 
0.002248 0.042237 0.725576 
0.028283 0.060538 0.703947 
0.023131 0.060074 0.706633 
0.023382 0.065257 0.696333 
0.023815 0.064092 0.697848 
0.014626 0.064454 0.697195 
0.022763 0.069556 0.690150 
0.024756 0.068649 0.691581 
0.024325 0.069397 0.690655 
0.024638 0.067975 0.692669 
0.019924 0.070168 0.687866 
0.021949 0.072922 0.683359 
0.025261 0.069716 0.689699 
0.024100 0.070166 0.689399 
0.024027 0.071283 0.686290 
0.022160 0.071379 0.686056 
0.025904 0.071352 0.685715 
0.022604 0.070729 0.687515 
0.024700 0.071986 0.684866 
0.026214 0.073135 0.682340 
0.020787 0.068593 0.691002 
0.022954 0.070265 0.688804 
0.025641 0.068117 0.691835 
0.025832 0.068748 0.690563 
0.026672 0.067495 0.691226 
0.027568 0.070095 0.688182 
0.035775 0.070578 0.684210 
0.084005 0.076592 0.683299 
0.034335 0.058928 0.684715 
0.026109 0.072117 0.684099 
0.028754 0.072513 0.685128 
0.027917 0.072763 0.683565 
0.028980 0.071618 0.686575 
0.030658 0.071849 0.686777 
0.030910 0.073898 0.684623 
0.088159 0.078353 0.684534 
0.032362 0.073809 0.684748 
0.029981 0.072905 0.685715 
0.090459 0.077332 0.686229 
0.091829 0.076906 0.687335 
0.088541 0.078801 0.682986 
0.094440 0.077643 0.686827 
0.093063 0.070639 0.687439 
0.089423 0.078333 0.683724 
0.088212 0.075960 0.687179 
0.092938 0.073180 0.688841 
0.093895 0.076738 0.689038 
0.092580 0.075495 0.689346 
0.095890 0.065846 0.702341 
0.091346 0.076022 0.689002 
0.093091 0.074570 0.690092 
0.091770 0.074496 0.689220 
0.093187 0.069372 0.686832 
0.094493 0.067155 0.686782 
0.095090 0.065511 0.686289 
0.094990 0.069298 0.688742 
0.094744 0.070223 0.689198 
0.095495 0.071130 0.694108 
0.095552 0.069524 0.693426 
0.094701 0.071012 0.690476 
0.094897 0.077148 0.688210 
0.098609 0.063855 0.709499 
0.099913 0.071968 0.695850 
0.096408 0.063930 0.689314 
0.097149 0.061532 0.694579 
0.094419 0.064405 0.684982 
0.095384 0.064219 0.686080 
0.093458 0.077352 0.687786 
0.094913 0.076460 0.689755 
0.093368 0.075912 0.690386 
0.092072 0.078588 0.684271 
0.092930 0.078017 0.686295 
0.107155 0.069794 0.702247 
0.095603 0.072216 0.692207 
0.096480 0.072261 0.693907 
0.094821 0.075554 0.690788 
0.098000 0.072234 0.694651 
0.097333 0.062230 0.711544 
0.096121 0.061297 0.708663 
0.099169 0.064545 0.708730 
0.097730 0.064663 0.708565 
0.096806 0.064013 0.709241 
0.096558 0.064907 0.708119 
0.099154 0.062426 0.711920 
0.096100 0.064978 0.698244 
0.096656 0.066850 0.699304 
0.095997 0.068579 0.698129 
0.096348 0.055943 0.710804 
0.101071 0.064128 0.709841 
0.096861 0.058244 0.705007 
0.095973 0.062424 0.707341 
0.096843 0.060856 0.711318 
0.095913 0.058368 0.712336 
0.098035 0.063202 0.710502 
0.097191 0.057391 0.710978 
0.100711 0.062081 0.712650 
0.093923 0.059422 0.717557 
0.103414 0.061882 0.714220 
0.100025 0.061616 0.713285 
0.096003 0.066466 0.693303 
0.095835 0.068638 0.700506 
0.097700 0.066162 0.705894 
0.092988 0.057613 0.714430 
0.096189 0.063734 0.702838 
0.096588 0.063017 0.710267 
0.095594 0.055892 0.722975 
0.098318 0.061340 0.714015 
0.099667 0.060737 0.714479 
0.095615 0.070790 0.695836 
0.096327 0.066890 0.701122 
0.096079 0.068426 0.696129 
0.093511 0.056430 0.720071 
0.095786 0.067504 0.702207 
0.095706 0.066732 0.703585 
0.096395 0.067518 0.703347 
0.091596 0.058368 0.715878 
0.086894 0.058000 0.721667 
0.096046 0.065020 0.706846 
0.096023 0.060533 0.715683 
0.093802 0.055721 0.722900 
0.092094 0.057860 0.719726 
0.092746 0.055811 0.721572 
0.092828 0.056171 0.713923 
0.090009 0.057407 0.720069 
0.085860 0.057579 0.722602 
0.089064 0.059320 0.720066 
0.089843 0.059641 0.718692 
0.084972 0.056034 0.724626 
0.086794 0.055608 0.724757 
0.088755 0.054194 0.728531 
0.090741 0.055467 0.724647 
0.094553 0.055356 0.724181 
0.091929 0.055669 0.723274 
0.093241 0.054125 0.728188 
0.097572 0.056553 0.720269 
0.094789 0.054363 0.727330 
0.095461 0.058607 0.718422 
0.101995 0.054121 0.725720 
0.100602 0.054523 0.725098 
0.089841 0.056043 0.723313 
0.098516 0.056662 0.719257 
0.094651 0.055937 0.721377 
0.093819 0.058047 0.719044 
0.093192 0.059155 0.714796 
0.097273 0.057715 0.718792 
0.092615 0.054850 0.713564 
0.106611 0.054892 0.725052 
0.104140 0.055048 0.718261 
0.094835 0.059708 0.713805 
0.094125 0.058424 0.713503 
0.094078 0.057139 0.712965 
0.095163 0.048445 0.709084 
0.099738 0.058411 0.716983 
0.098942 0.057381 0.718201 
0.096105 0.051627 0.709170 
0.096655 0.049855 0.708341 
0.093708 0.053370 0.729420 
0.096472 0.055460 0.724661 
0.096373 0.054508 0.726408 
0.096327 0.053748 0.727976 
0.101082 0.055622 0.718194 
0.108389 0.052890 0.732971 
0.108682 0.052332 0.737479 
0.110669 0.053269 0.735623 
0.109366 0.053035 0.736011 
0.106818 0.051420 0.735316 
0.108069 0.053283 0.730831 
0.105916 0.052933 0.730339 
0.107275 0.052716 0.732580 
0.107582 0.052510 0.734239 
0.098411 0.040558 0.702514 
0.110860 0.054073 0.732713 
0.104753 0.051709 0.732858 
0.116989 0.052260 0.741322 
0.100110 0.051233 0.734147 
0.098147 0.052305 0.730493 
0.094144 0.052496 0.730944 
0.094933 0.052837 0.729889 
0.101934 0.054092 0.727715 
0.101501 0.052301 0.730986 
0.099295 0.052970 0.729444 
0.099389 0.051743 0.731649 
0.100494 0.051748 0.731780 
0.103151 0.052027 0.731955 
0.091352 0.052954 0.730851 
0.087932 0.054501 0.727750 
0.099849 0.052253 0.730759 
0.090230 0.053999 0.728932 
0.089153 0.053747 0.729578 
0.100527 0.053482 0.728582 
0.087595 0.054141 0.728774 
0.092193 0.053729 0.729382 
0.093172 0.054752 0.726631 
0.093685 0.055632 0.712610 
0.100565 0.052782 0.729870 
0.097937 0.054734 0.725533 
0.094798 0.054963 0.725747 
0.091318 0.054587 0.727555 
0.089261 0.054483 0.727527 
0.091761 0.055091 0.725770 
0.089916 0.054980 0.726096 
0.096703 0.047488 0.707638 
0.094695 0.046893 0.708540 
0.088136 0.038172 0.713966 
0.088556 0.040247 0.713888 
0.094224 0.045546 0.708250 
0.088631 0.052543 0.717058 
0.097669 0.054588 0.709106 
0.098094 0.055334 0.724185 
0.097755 0.060852 0.700477 
0.098177 0.050984 0.705509 
0.093506 0.043064 0.708646 
0.094128 0.044184 0.707945 
0.102377 0.053754 0.720743 
0.102033 0.054038 0.723611 
0.100090 0.030196 0.695628 
0.098501 0.036821 0.700909 
0.099240 0.054206 0.726153 
0.104644 0.053690 0.722364 
0.104503 0.053560 0.725268 
0.112987 0.051207 0.742707 
0.113953 0.051577 0.741471 
0.097258 0.035450 0.701465 
0.110039 0.050863 0.742003 
0.111497 0.050538 0.743292 
0.108162 0.051228 0.738509 
0.104955 0.051014 0.734723 
0.106148 0.050650 0.736424 
0.114272 0.046069 0.748138 
0.106340 0.047308 0.743033 
0.105020 0.049919 0.738965 
0.101671 0.051540 0.732482 
0.089997 0.039293 0.710974 
0.109524 0.052240 0.739220 
0.110564 0.051723 0.740694 
0.113216 0.050179 0.744485 
0.114471 0.049642 0.745650 
0.114543 0.050921 0.743185 
0.114826 0.049110 0.746723 
0.085829 0.018926 0.719853 
0.110131 0.049455 0.742670 
0.116984 0.044558 0.750508 
0.117789 0.045875 0.749940 
0.115821 0.049674 0.746004 
0.118970 0.050575 0.746036 
0.117022 0.049844 0.746259 
0.121681 0.049873 0.746894 
0.121433 0.048631 0.749217 
0.118133 0.048718 0.748596 
0.120089 0.047627 0.750474 
0.119680 0.048483 0.749195 
0.119857 0.049648 0.747546 
0.116549 0.047176 0.748832 
0.087917 0.014070 0.703647 
0.123182 0.042423 0.755941 
0.118526 0.047571 0.749852 
0.118681 0.056551 0.730844 
0.118812 0.044954 0.750992 
0.121278 0.042968 0.754315 
0.100185 0.034623 0.696525 
0.100184 0.033128 0.697965 
0.100297 0.025130 0.693196 
0.097027 0.036480 0.702551 
0.098965 0.038118 0.690536 
0.090576 0.037243 0.706841 
0.089202 0.036154 0.706565 
0.099148 0.035559 0.699828 
0.097027 0.034136 0.700920 
0.099343 0.032311 0.690000 
0.095693 0.011684 0.693959 
0.099621 0.021221 0.693374 
0.100175 0.030796 0.697080 
0.100037 0.034543 0.698571 
0.099954 0.018218 0.687217 
0.099775 0.026337 0.689513 
0.099680 0.021731 0.691746 
0.099909 0.021090 0.689795 
0.097705 0.046424 0.695051 
0.098551 0.041861 0.696472 
0.089254 0.030128 0.702687 
0.095099 0.040552 0.705560 
0.095242 0.039024 0.705347 
0.099463 0.037551 0.698580 
0.095800 0.034510 0.701837 
0.084099 0.022121 0.706535 
0.094809 0.033479 0.701603 
0.095916 0.039985 0.704739 
0.090693 0.039301 0.709320 
0.092206 0.042245 0.710225 
0.091726 0.039859 0.709308 
0.092798 0.041900 0.709274 
0.095415 0.045937 0.707428 
0.090424 0.038635 0.708023 
0.089226 0.037308 0.708015 
0.096282 0.038832 0.704261 
0.098702 0.039382 0.701434 
0.097619 0.038988 0.703085 
0.098612 0.040777 0.700802 
0.098167 0.041938 0.703567 
0.097988 0.043072 0.702003 
0.098359 0.041991 0.701314 
0.094824 0.043938 0.706757 
0.097868 0.037838 0.702045 
0.097554 0.055812 0.699619 
0.091497 0.038425 0.706922 
0.095581 0.044920 0.706695 
0.098171 0.047493 0.705299 
0.098499 0.049692 0.704214 
0.096386 0.043965 0.705964 
0.094722 0.044968 0.707409 
0.097293 0.045527 0.706097 
0.097410 0.042806 0.705112 
0.097269 0.040216 0.704034 
0.096700 0.037463 0.703606 
0.095299 0.042385 0.705935 
0.092100 0.037512 0.705553 
0.094150 0.042717 0.707300 
0.089517 0.038468 0.712568 
0.090687 0.040673 0.711437 
0.088484 0.038125 0.710896 
0.091178 0.040095 0.710376 
0.091146 0.045950 0.712725 
0.093714 0.046104 0.709215 
0.089858 0.033181 0.704244 
0.095045 0.049987 0.709323 
0.094193 0.048968 0.709987 
0.093867 0.047416 0.709741 
0.086589 0.038310 0.715264 
0.087399 0.036504 0.714275 
0.085409 0.031941 0.708549 
0.084295 0.030827 0.707688 
0.087865 0.036296 0.710561 
0.086162 -0.008177 0.694521 
0.085932 0.012683 0.706089 
0.085250 0.034492 0.711892 
0.084827 0.035430 0.716439 
0.086858 0.032249 0.707159 
0.093376 0.034267 0.702415 
0.086049 0.006193 0.707120 
0.088706 0.032817 0.705318 
0.094939 0.014113 0.695624 
0.092127 0.033826 0.702457 
0.090082 0.032193 0.702923 
0.091188 0.033463 0.703282 
0.091404 0.032734 0.702150 
0.086744 0.021003 0.704918 
0.088337 -0.007650 0.693751 
0.086875 -0.008662 0.696410 
0.089445 -0.006091 0.690258 
0.085244 -0.008331 0.692747 
0.086907 -0.007656 0.693414 
0.086584 -0.007603 0.691695 
0.092269 -0.003085 0.691906 
0.088046 -0.006774 0.691075 
0.086369 -0.007444 0.689999 
0.093127 -0.004650 0.690751 
0.097575 0.002917 0.687013 
0.087784 -0.006726 0.689315 
0.093457 -0.003873 0.686970 
0.092800 -0.005284 0.689567 
0.087063 -0.002968 0.683951 
0.087827 -0.006468 0.688129 
0.090364 -0.005162 0.685962 
0.093687 -0.004621 0.688566 
0.088915 -0.005959 0.687233 
0.090814 -0.004394 0.684277 
0.092053 -0.004436 0.685376 
0.096969 0.010611 0.689383 
0.096587 0.006803 0.689783 
0.091924 -0.003861 0.683136 
0.096153 -0.003543 0.686857 
0.098645 -0.000926 0.685964 
0.092271 -0.004599 0.687800 
0.090710 -0.005355 0.688797 
0.099117 0.014532 0.689254 
0.097817 0.012673 0.689069 
0.097016 0.014201 0.690505 
0.098771 0.010967 0.688042 
0.100450 0.016298 0.684121 
0.101012 0.014850 0.688067 
0.099176 0.018387 0.691554 
0.099526 0.024311 0.687029 
0.100802 0.012792 0.681223 
0.101524 0.009492 0.684051 
0.099156 0.009381 0.687367 
0.100688 0.009803 0.686134 
0.099885 0.012916 0.687740 
0.100231 0.011358 0.686855 
0.101184 0.011267 0.685171 
0.100654 0.006804 0.684513 
0.100670 0.005501 0.683945 
0.100812 0.012794 0.686075 
0.099728 0.007030 0.685491 
0.099380 0.008120 0.686287 
0.098889 -0.001369 0.683526 
0.093599 -0.003609 0.684597 
0.096417 -0.003247 0.688199 
0.098381 -0.002184 0.685921 
0.098020 -0.001874 0.684593 
0.098931 -0.001034 0.684661 
0.126663 0.047526 0.751659 
0.129258 0.046672 0.754310 
0.128276 0.047212 0.752654 
0.125844 0.047177 0.752578 
0.123066 0.049720 0.746479 
0.136439 0.044171 0.760092 
0.129059 0.045725 0.755406 
0.132487 0.044462 0.758547 
0.125719 0.046313 0.754143 
0.127703 0.045001 0.756460 
0.126416 0.045484 0.755558 
0.127358 0.045986 0.754845 
0.128512 0.044270 0.757771 
0.131067 0.044625 0.757796 
0.122258 0.044411 0.754523 
0.123153 0.048911 0.748267 
0.123689 0.046082 0.754357 
0.125266 0.045318 0.755455 
0.128230 0.041513 0.759479 
0.120303 0.044216 0.752583 
0.124627 0.048353 0.749121 
0.121588 0.047380 0.751340 
0.123407 0.047889 0.750558 
0.121738 0.046032 0.752900 
0.133587 0.044057 0.759129 
0.135435 0.043609 0.760897 
0.138215 0.043221 0.760827 
0.134049 0.043650 0.760269 
0.132432 0.042476 0.762176 
0.138841 0.042190 0.761919 
0.140677 0.043165 0.761788 
0.140021 0.042008 0.762875 
0.030440 0.030661 0.687298 
-0.002235 0.088161 0.651618 
0.044767 0.099225 0.636969 
0.045377 0.099096 0.638275 
0.006715 0.090215 0.652997 
0.089778 -0.003932 0.694503 
0.090396 -0.005508 0.693434 
-0.016772 0.098165 0.632078 
-0.015501 0.099041 0.631105 
-0.016410 0.100087 0.629644 
-0.013908 0.100569 0.630563 
-0.004624 0.091437 0.645884 
-0.006290 0.091540 0.645565 
0.038470 0.101146 0.632453 
0.039751 0.100337 0.634100 
-0.002812 0.086193 0.654272 
0.000309 0.093669 0.645143 
0.086511 0.094265 0.654575 
0.091800 0.092103 0.659663 
0.090629 0.091610 0.660380 
0.009008 0.090009 0.653116 
0.010307 0.089156 0.653742 
0.008814 0.089542 0.654462 
0.070632 0.091380 0.659458 
0.071365 0.092124 0.657625 
-0.012101 0.099899 0.632597 
-0.010488 0.102507 0.629421 
0.025149 0.096343 0.641622 
-0.000583 0.102235 0.624892 
0.005279 0.100734 0.629210 
-0.015083 0.102902 0.628049 
0.076345 0.099215 0.642396 
0.084136 0.094911 0.654459 
0.085403 0.094890 0.654173 
0.043926 0.098995 0.638282 
0.042983 0.099252 0.636873 
0.060842 0.100472 0.636321 
0.064455 0.091392 0.657292 
0.065717 0.092784 0.654843 
0.066932 0.091860 0.656871 
0.056636 0.080983 0.674492 
0.057248 0.080151 0.675264 
0.094096 0.078694 0.682961 
0.058646 0.079656 0.675343 
0.058276 0.080835 0.674580 
0.047434 0.083291 0.669372 
0.048546 0.012069 0.649123 
0.050583 0.011721 0.649780 
0.099527 0.017185 0.667770 
0.099216 0.019997 0.673559 
0.099585 0.017329 0.672371 
0.083356 0.035180 0.660446 
0.087747 0.033873 0.662657 
0.085400 0.030675 0.658344 
0.099308 0.015289 0.660318 
0.098834 0.016321 0.659951 
0.099306 0.015926 0.661366 
0.097196 0.014649 0.657443 
0.084983 0.059740 0.674814 
0.081721 0.060202 0.673134 
0.096311 0.046932 0.676163 
0.095058 0.048299 0.675807 
0.099646 0.009904 0.666897 
0.099831 0.012065 0.666221 
0.035170 0.043144 0.680503 
0.032886 0.042309 0.685751 
0.034152 0.045025 0.681125 
0.038685 -0.002255 0.676804 
0.046644 -0.009624 0.690726 
0.047650 -0.008571 0.691245 
0.080657 0.027470 0.712536 
0.081881 0.027348 0.713721 
0.080816 0.026620 0.717820 
0.055484 0.075308 0.673147 
0.056716 0.075763 0.673599 
0.032374 0.030486 0.680006 
0.030334 0.029603 0.684121 
0.032463 0.031919 0.683750 
0.020459 0.063945 0.698996 
0.018815 0.064482 0.697284 
0.025949 0.065062 0.696284 
0.024767 0.065874 0.695454 
0.033840 0.034427 0.683727 
0.036552 0.038284 0.679233 
0.035929 0.035943 0.676575 
0.010786 0.070122 0.686170 
0.081700 0.078016 0.681314 
0.032192 0.071678 0.686315 
0.082857 0.079325 0.682339 
0.084425 0.079968 0.682402 
0.084029 0.079058 0.683183 
0.080504 0.078736 0.680239 
0.079957 0.079893 0.679796 
0.096302 0.061125 0.687349 
0.096977 0.059525 0.690573 
0.101139 0.069729 0.700769 
0.079237 0.055530 0.723955 
0.076369 0.054647 0.724583 
0.081733 0.041662 0.719355 
0.079233 0.045307 0.720357 
0.078344 0.041001 0.720475 
0.073847 0.054689 0.722220 
0.076936 0.055179 0.722639 
0.099314 0.054967 0.724575 
0.100405 0.054606 0.723249 
0.116435 0.038431 0.750602 
0.114037 0.037435 0.748797 
0.115035 0.039596 0.749914 
0.111887 0.041802 0.748790 
0.099444 0.025412 0.695068 
0.098833 0.026727 0.696296 
0.096621 0.059299 0.688384 
0.084059 0.040390 0.718003 
0.086510 0.070203 0.683079 
0.087656 0.068162 0.682787 
0.084364 0.068580 0.680837 
0.093773 0.016648 0.697422 
0.094692 0.019487 0.697073 
0.093237 0.018965 0.699118 
0.085532 0.010161 0.706362 
0.085516 0.011718 0.707401 
0.086049 0.011112 0.709653 
0.095347 0.023802 0.698761 
0.093700 0.025176 0.700184 
0.092821 0.022014 0.699474 
0.097159 0.034976 0.679654 
0.099676 0.029203 0.689949 
0.099839 0.029275 0.691641 
0.114816 0.041432 0.750213 
0.090988 0.004154 0.695725 
0.092638 0.008875 0.695854 
0.089665 0.007600 0.698551 
0.121957 0.035844 0.754979 
0.119091 0.037867 0.752621 
0.122146 0.038749 0.755016 
0.081380 0.022933 0.719961 
-0.018309 0.099427 0.629266 
-0.018197 0.100608 0.628132 
-0.019306 0.099017 0.629825 
-0.018050 0.097179 0.633092 
-0.018807 0.098140 0.631959 
-0.020136 0.095245 0.635348 
-0.018222 0.096111 0.635983 
-0.013533 0.097675 0.634020 
-0.013097 0.096494 0.635961 
-0.012552 0.097236 0.635249 
-0.018966 0.102324 0.626403 
-0.015962 0.092886 0.640759 
-0.017864 0.091364 0.642572 
-0.013973 0.094734 0.637531 
-0.013387 0.094539 0.638662 
-0.016717 0.093571 0.639060 
-0.018963 0.092223 0.640860 
-0.019463 0.094364 0.636774 
-0.019821 0.093264 0.638862 
-0.015033 0.095027 0.638323 
-0.016356 0.096090 0.635974 
-0.019341 0.096793 0.634654 
-0.019918 0.097438 0.633202 
-0.014676 0.095765 0.635586 
-0.015898 0.097272 0.633353 
-0.015259 0.096565 0.634634 
-0.013626 0.095047 0.636415 
-0.011134 0.095322 0.637560 
-0.006378 0.095916 0.639530 
-0.009578 0.095418 0.638512 
-0.010494 0.096471 0.636774 
-0.011754 0.096903 0.636021 
-0.008166 0.097978 0.637062 
-0.003961 0.100220 0.637952 
-0.010747 0.098039 0.635009 
-0.011581 0.094103 0.638446 
-0.008700 0.094132 0.639780 
-0.012601 0.094328 0.639978 
-0.013017 0.088993 0.647562 
-0.014535 0.089279 0.646915 
-0.010804 0.090258 0.645568 
-0.016916 0.088429 0.647890 
0.002491 0.091835 0.647774 
0.005312 0.091771 0.648934 
0.005829 0.090418 0.651149 
0.014168 0.100748 0.629800 
0.004183 0.098715 0.633542 
0.006331 0.097293 0.637011 
0.010228 0.095029 0.647090 
0.009089 0.096188 0.644773 
0.013292 0.094355 0.645168 
-0.005374 0.093970 0.642241 
-0.007970 0.092726 0.642589 
-0.007854 0.093486 0.641037 
-0.009586 0.093192 0.640665 
0.000925 0.092132 0.646447 
0.003014 0.097183 0.644084 
0.007366 0.096854 0.642106 
-0.001884 0.094538 0.643593 
-0.004466 0.092020 0.644127 
-0.011604 0.093771 0.641012 
-0.010846 0.093161 0.641924 
-0.010206 0.092345 0.642968 
-0.012955 0.091730 0.643116 
-0.009275 0.091792 0.644145 
-0.013588 0.093447 0.640814 
-0.008463 0.090879 0.645416 
-0.020255 0.089695 0.645218 
-0.016523 0.090699 0.644205 
-0.004173 0.091162 0.646990 
-0.003354 0.091767 0.645209 
-0.014825 0.090074 0.645555 
0.000184 0.086934 0.654105 
-0.011700 0.091068 0.644420 
-0.025997 0.044794 0.723493 
-0.005755 0.085166 0.655454 
0.001479 0.087031 0.654234 
-0.004006 0.088118 0.650642 
-0.000872 0.085997 0.655284 
0.002923 0.086982 0.654529 
-0.018472 0.085647 0.652821 
-0.017884 0.086871 0.650072 
-0.015431 0.087279 0.650183 
-0.019971 0.086863 0.649920 
-0.009909 0.084342 0.656004 
-0.018605 0.079035 0.663652 
-0.007296 0.086374 0.652798 
-0.005620 0.087610 0.651046 
-0.005063 0.088714 0.649506 
-0.012244 0.087600 0.649670 
-0.009025 0.088272 0.648871 
-0.010616 0.086330 0.652146 
-0.007591 0.089845 0.646811 
-0.006457 0.089163 0.648262 
0.002705 0.090554 0.648755 
0.009887 0.082596 0.662332 
0.011665 0.083121 0.662496 
0.009077 0.081428 0.664618 
0.010529 0.080033 0.667350 
0.011677 0.079530 0.669145 
0.010363 0.078954 0.669875 
0.042310 0.037501 0.659981 
0.044581 0.035282 0.655419 
0.041026 0.032219 0.659391 
0.011644 0.074235 0.679851 
0.009708 0.074613 0.678406 
0.008631 0.077620 0.671893 
0.011415 0.077980 0.672290 
0.010992 0.076582 0.674341 
0.010254 0.072894 0.681853 
0.010155 0.073636 0.680477 
0.011582 0.073537 0.681182 
-0.007020 0.073695 0.675713 
0.005035 0.072520 0.680753 
-0.002285 0.068438 0.687904 
-0.003115 0.069498 0.684721 
0.009441 0.071919 0.683649 
0.007986 0.072454 0.681934 
0.034619 0.052155 0.679686 
0.035194 0.051189 0.677023 
0.033424 0.051189 0.682845 
0.008104 0.073411 0.680066 
0.011173 0.075612 0.676725 
0.008819 0.075958 0.675489 
0.006086 0.076839 0.673945 
0.000056 0.078817 0.668779 
0.003126 0.080785 0.665712 
0.012745 0.066011 0.694403 
0.011600 0.066497 0.692865 
0.014284 0.067310 0.692983 
0.015594 0.068226 0.691460 
0.008129 0.069371 0.686929 
0.003051 0.068413 0.688802 
0.005537 0.069382 0.686909 
0.014569 0.070232 0.687266 
0.014239 0.069487 0.688604 
0.004911 0.065374 0.693789 
-0.000520 0.063045 0.697035 
-0.003296 0.064429 0.694278 
-0.000231 0.066276 0.691792 
0.004272 0.067695 0.689692 
-0.004712 0.066362 0.691052 
0.004151 0.069858 0.685772 
0.007141 0.070596 0.685200 
0.012458 0.069717 0.687523 
0.009463 0.068947 0.687824 
0.009779 0.070890 0.685067 
0.016656 0.067510 0.692805 
0.005237 0.066904 0.690702 
0.006001 0.066143 0.691831 
0.007459 0.068048 0.689455 
0.011148 0.068292 0.689249 
0.011285 0.067141 0.691101 
0.008535 0.066089 0.692428 
0.008880 0.083677 0.660572 
0.000619 0.085120 0.657077 
0.005304 0.088575 0.651898 
0.007796 0.089480 0.653834 
0.002997 0.085178 0.657820 
0.003761 0.086395 0.655921 
0.004901 0.085572 0.657622 
0.006105 0.085158 0.658737 
0.006277 0.086061 0.657515 
0.007208 0.084257 0.659809 
0.007683 0.082829 0.661684 
0.005766 0.082034 0.663339 
0.001972 0.083227 0.660765 
0.007922 0.086975 0.654997 
0.003904 0.088508 0.652615 
0.012480 0.088505 0.655177 
0.013827 0.088128 0.653965 
0.015275 0.088732 0.653753 
0.008519 0.088025 0.654515 
0.007292 0.087290 0.653420 
0.004051 0.090102 0.649709 
0.008907 0.090521 0.651762 
0.005635 0.087729 0.652896 
0.005411 0.086767 0.656092 
0.072732 0.091194 0.660467 
0.071535 0.090594 0.661792 
0.012101 0.088930 0.653560 
0.013508 0.089641 0.652710 
0.011121 0.088887 0.654829 
0.040511 0.077455 0.676669 
0.057642 0.088463 0.661744 
0.058646 0.087094 0.664825 
0.060540 0.088531 0.662283 
0.065166 0.088054 0.666019 
0.066647 0.088933 0.664608 
0.061344 0.087553 0.664859 
0.063028 0.088722 0.662767 
0.066915 0.089881 0.661927 
0.065022 0.088914 0.663575 
0.062575 0.089957 0.659825 
0.063406 0.087906 0.665301 
0.054728 0.088037 0.661618 
0.056008 0.090034 0.657785 
0.054433 0.086135 0.665352 
0.054536 0.085297 0.667134 
0.056373 0.086143 0.666295 
0.051172 0.086111 0.664213 
0.049685 0.087522 0.661284 
0.052960 0.086284 0.664466 
0.052794 0.085425 0.665926 
0.054091 0.086887 0.663715 
0.052941 0.084617 0.667447 
0.061510 0.075013 0.673497 
0.063411 0.076638 0.674057 
0.050762 0.084778 0.666547 
0.048390 0.086036 0.663841 
0.044857 0.085922 0.663454 
0.047707 0.084618 0.666552 
0.049919 0.083717 0.668766 
0.044991 0.074099 0.673269 
0.043976 0.079952 0.672854 
0.059196 0.084082 0.671548 
0.057314 0.083608 0.672205 
0.055311 0.082772 0.673384 
0.059050 0.082950 0.672907 
0.052100 0.088889 0.659174 
0.056356 0.082885 0.673173 
0.052699 0.077139 0.673356 
0.092175 0.083953 0.675311 
0.095070 0.083088 0.676764 
0.093426 0.083708 0.675771 
0.095171 0.085712 0.671292 
0.089911 0.087653 0.667533 
0.092897 0.084612 0.674318 
0.088369 0.093001 0.656829 
0.091421 0.087997 0.667133 
0.093669 0.086116 0.670761 
0.092333 0.085944 0.671209 
0.091225 0.087428 0.668604 
0.094181 0.086696 0.669479 
0.095969 0.084492 0.673620 
0.096244 0.083496 0.675809 
0.097211 0.082055 0.678410 
0.090971 0.086526 0.670163 
0.089626 0.085908 0.670793 
0.089226 0.086599 0.669258 
0.091533 0.092683 0.657934 
0.083871 0.094241 0.655548 
0.085146 0.094229 0.655247 
0.086447 0.093455 0.656301 
0.087122 0.092497 0.657914 
0.085354 0.092700 0.657650 
0.082289 0.096485 0.651427 
0.082573 0.097538 0.650187 
0.083580 0.092679 0.657512 
0.084417 0.092020 0.658670 
0.073094 0.090682 0.661884 
0.079582 0.096897 0.649820 
0.078534 0.095966 0.650658 
0.080211 0.096167 0.651118 
0.081911 0.098289 0.649267 
-0.014571 0.098396 0.632406 
0.078224 0.096603 0.649544 
0.086074 0.096205 0.652316 
0.081184 0.097173 0.650125 
0.082894 0.095440 0.653307 
0.081087 0.094546 0.654292 
0.082683 0.094522 0.655027 
0.087318 0.096592 0.651733 
0.083964 0.097494 0.650696 
0.087540 0.095555 0.652489 
0.092536 0.093466 0.656718 
0.092820 0.092495 0.659087 
0.086355 0.095199 0.653352 
0.087988 0.093695 0.655148 
0.087735 0.094490 0.653605 
0.084347 0.096459 0.652016 
0.089482 0.091069 0.660889 
0.087648 0.091716 0.659255 
0.086021 0.091909 0.658847 
0.090457 0.090741 0.661724 
0.089973 0.089928 0.663287 
0.086420 0.091194 0.660045 
0.084954 0.090794 0.660578 
0.088051 0.091004 0.660573 
0.087145 0.089560 0.662886 
0.088606 0.090337 0.662098 
0.094267 0.088409 0.666407 
0.093115 0.089552 0.664330 
0.096650 0.087434 0.668094 
0.095675 0.086474 0.669739 
0.093442 0.090739 0.662247 
0.029427 0.087967 0.656758 
0.028401 0.088817 0.654891 
0.077748 0.090256 0.662682 
0.031736 0.087523 0.657929 
0.032868 0.088720 0.655488 
0.028075 0.083659 0.665550 
0.032559 0.085743 0.662015 
0.029815 0.087010 0.658858 
0.075979 0.089665 0.664959 
0.075792 0.090185 0.663174 
0.027187 0.084511 0.663397 
0.024519 0.086036 0.659784 
0.025950 0.085602 0.661033 
0.017363 0.090585 0.651635 
0.070161 0.089937 0.663280 
0.041730 0.090551 0.653164 
0.040375 0.089378 0.655170 
0.037242 0.091689 0.649450 
0.040997 0.085495 0.663627 
0.041253 0.087623 0.659081 
0.028380 0.085956 0.660863 
0.037424 0.084675 0.664946 
0.041600 0.083573 0.667677 
0.034484 0.083765 0.666899 
0.030352 0.088557 0.655498 
0.030024 0.089649 0.653130 
0.027419 0.089754 0.652815 
0.027518 0.087650 0.657141 
0.076553 0.090703 0.661367 
0.074748 0.090742 0.661674 
0.073881 0.090136 0.663258 
0.016091 0.090123 0.653227 
0.069133 0.089407 0.664679 
0.070114 0.090638 0.661408 
0.068829 0.090737 0.660555 
0.068446 0.089790 0.663185 
0.068666 0.091896 0.657175 
0.070176 0.092403 0.656501 
0.062181 0.091287 0.656692 
0.066566 0.093864 0.652656 
0.067662 0.090994 0.659152 
0.069010 0.092702 0.655478 
0.073244 0.092498 0.657189 
0.072571 0.091729 0.658935 
0.073837 0.091536 0.659628 
0.077829 0.097683 0.646831 
0.076350 0.097733 0.645640 
0.075000 0.098083 0.644888 
0.076436 0.098542 0.644129 
0.046244 0.095632 0.645295 
0.044891 0.096312 0.644412 
0.064632 0.093344 0.652959 
0.042930 0.101398 0.631396 
-0.005533 0.103884 0.620011 
-0.000694 0.104792 0.619640 
0.028575 0.102628 0.627049 
0.026921 0.101657 0.629222 
0.044640 0.101697 0.631211 
0.058035 0.100312 0.635271 
0.059367 0.100357 0.635881 
0.066302 0.103055 0.631865 
0.047260 0.102172 0.630191 
0.064454 0.103207 0.631005 
0.065155 0.103009 0.631826 
0.075413 0.099891 0.640861 
0.075125 0.101380 0.638212 
0.073658 0.100999 0.638035 
0.044544 0.100308 0.633431 
0.045628 0.100028 0.634240 
0.044729 0.101068 0.632369 
0.019817 0.099528 0.633520 
0.019730 0.101348 0.629427 
0.037583 0.101716 0.630406 
0.040771 0.101425 0.631598 
0.033068 0.100581 0.632651 
0.035980 0.099953 0.634285 
0.037904 0.100365 0.634070 
0.039080 0.099911 0.635162 
0.034227 0.099431 0.634773 
0.034762 0.098726 0.636149 
0.032841 0.098919 0.635694 
0.017363 0.098129 0.637044 
0.023323 0.098656 0.637094 
0.023460 0.101691 0.629202 
0.028180 0.098771 0.637089 
0.029897 0.099201 0.635302 
0.031585 0.098511 0.637016 
0.028140 0.100111 0.633227 
0.045026 0.098810 0.639506 
0.043391 0.098674 0.639690 
0.026308 0.095418 0.643367 
0.009202 0.096690 0.639636 
0.016872 0.095670 0.641590 
0.028542 0.096964 0.640865 
0.020934 0.095470 0.642163 
0.017963 0.094814 0.642997 
0.028117 0.096130 0.642197 
0.026802 0.097720 0.639300 
0.030418 0.098277 0.638630 
0.029864 0.097651 0.639866 
0.042016 0.098456 0.639896 
0.048470 0.099062 0.638294 
0.050858 0.099127 0.638766 
0.071423 0.100357 0.638856 
0.046346 0.098439 0.640508 
0.044648 0.098176 0.640903 
0.052110 0.099546 0.637620 
0.046888 0.100130 0.634646 
0.047708 0.099630 0.636191 
0.070084 0.100430 0.638047 
0.069393 0.101482 0.634419 
0.063587 0.100552 0.636748 
0.067249 0.102882 0.632401 
0.069647 0.102381 0.632888 
0.074564 0.100462 0.639432 
0.067534 0.103424 0.631229 
0.069699 0.100862 0.636419 
0.076523 0.101387 0.638572 
0.073921 0.101847 0.636631 
0.066404 0.100029 0.638354 
0.057646 0.100088 0.636849 
0.056154 0.099990 0.638073 
0.067256 0.099512 0.640164 
0.068247 0.100285 0.637885 
0.062395 0.092670 0.653544 
0.059551 0.091577 0.655111 
0.056535 0.093710 0.648855 
0.056781 0.094680 0.645982 
0.059142 0.094558 0.647269 
0.080403 0.099733 0.643419 
0.077672 0.100874 0.639900 
0.077629 0.101978 0.638673 
0.070866 0.102198 0.633830 
0.073832 0.102692 0.634936 
0.072416 0.102055 0.635108 
0.079811 0.100365 0.642040 
0.078668 0.100113 0.641262 
0.077100 0.099956 0.640963 
0.052939 0.094889 0.644305 
0.056190 0.092204 0.652798 
0.055045 0.095029 0.644417 
0.071946 0.099705 0.640514 
0.073008 0.100182 0.639204 
0.080930 0.101351 0.642429 
0.073638 0.098937 0.643093 
0.074463 0.099338 0.642111 
0.083593 0.100598 0.645584 
0.082651 0.100205 0.645526 
0.085999 0.099894 0.647931 
0.079320 0.098567 0.645850 
0.077911 0.098998 0.643382 
0.079313 0.099038 0.644224 
0.075689 0.096965 0.647212 
0.073630 0.097798 0.645688 
0.073660 0.098414 0.644276 
0.072339 0.098177 0.644957 
0.052773 0.093131 0.649899 
0.081626 0.100049 0.644485 
0.078948 0.097461 0.648416 
0.071074 0.098551 0.644154 
0.072202 0.097521 0.646371 
0.081883 0.099495 0.646495 
0.068861 0.098980 0.641913 
0.080177 0.098175 0.647847 
0.070917 0.099287 0.642307 
0.072823 0.099416 0.642093 
0.051631 0.094544 0.645509 
0.063427 0.093907 0.651024 
0.051354 0.093913 0.647312 
0.050195 0.095052 0.644648 
0.050266 0.094449 0.645988 
0.047814 0.094902 0.646186 
0.048963 0.095006 0.645356 
0.050259 0.093589 0.648579 
0.049406 0.092935 0.650286 
0.048342 0.093988 0.647971 
0.046710 0.094688 0.646860 
0.057094 0.095651 0.644099 
0.058893 0.095508 0.645103 
0.060585 0.095420 0.645957 
0.060780 0.096692 0.644409 
0.062796 0.094462 0.649108 
0.061538 0.094840 0.647624 
0.044810 0.095152 0.646170 
0.046599 0.093719 0.648593 
0.039458 0.093782 0.646294 
0.039956 0.094578 0.645082 
0.037356 0.093602 0.645887 
0.044283 0.097221 0.642646 
0.041245 0.094314 0.646293 
0.040849 0.095301 0.644607 
0.046722 0.092022 0.651943 
0.047830 0.089635 0.656886 
0.044643 0.090676 0.653929 
0.042550 0.095279 0.645550 
0.040998 0.093036 0.648256 
0.036567 0.092604 0.647451 
0.016178 0.093765 0.645818 
0.016908 0.094232 0.644350 
0.020227 0.094652 0.643890 
0.014701 0.091613 0.651967 
0.016329 0.091958 0.650260 
0.022133 0.094396 0.645095 
0.023308 0.093999 0.646132 
0.021156 0.093587 0.646656 
0.018318 0.093266 0.646684 
0.019622 0.092644 0.647815 
0.032940 0.090065 0.652395 
0.032647 0.091127 0.649668 
0.034579 0.092008 0.648201 
0.036717 0.089172 0.654961 
0.030530 0.090689 0.650577 
0.028351 0.090606 0.651011 
0.018118 0.092029 0.648869 
0.020308 0.091741 0.649121 
0.015569 0.092749 0.648626 
0.011626 0.091135 0.651549 
0.008852 0.091700 0.650284 
0.008940 0.093767 0.648843 
0.015670 0.093192 0.647111 
0.012711 0.093919 0.648132 
0.019497 0.075267 0.678578 
0.019111 0.075745 0.677426 
0.020572 0.075972 0.677463 
0.071185 0.075302 0.672864 
0.063337 0.079700 0.675005 
0.061920 0.080451 0.675367 
0.037589 0.080394 0.674187 
0.040464 0.076677 0.678256 
0.081715 0.079717 0.681281 
0.034359 0.074014 0.683366 
0.089825 0.071778 0.686825 
0.097910 0.025330 0.670281 
0.096329 0.027407 0.668828 
0.097361 0.028292 0.673231 
0.095561 0.080472 0.680824 
0.097007 0.079288 0.683530 
0.095319 0.079548 0.682407 
0.079153 0.078535 0.678989 
0.055877 0.076623 0.673986 
0.054663 0.077939 0.674305 
0.077631 0.076836 0.677543 
0.090649 0.069009 0.685480 
0.089424 0.068389 0.684264 
0.089272 0.069768 0.685027 
0.073826 0.076796 0.672596 
0.060725 0.077039 0.674423 
0.058930 0.076604 0.674247 
0.058023 0.075600 0.673622 
0.057562 0.076786 0.674319 
0.080526 0.081011 0.679495 
0.080750 0.080107 0.680566 
0.028864 0.083153 0.667276 
0.037048 0.081371 0.672248 
0.039294 0.080707 0.672992 
0.056955 0.078414 0.674972 
0.041850 0.077042 0.675632 
0.040716 0.078397 0.675325 
0.042714 0.081807 0.670804 
0.044790 0.082780 0.669684 
0.064571 0.078425 0.674429 
0.062398 0.078490 0.674888 
0.063256 0.081051 0.674789 
0.061760 0.081617 0.674299 
0.059139 0.081715 0.673834 
0.060139 0.080983 0.675074 
0.069747 0.078943 0.673413 
0.068644 0.079993 0.673522 
0.096511 0.045658 0.675710 
0.069728 0.073830 0.673617 
0.069357 0.071801 0.674052 
0.068239 0.078600 0.673733 
0.078178 0.062275 0.673593 
0.077252 0.060461 0.670932 
0.069279 0.077719 0.673249 
0.071712 0.076380 0.672505 
0.068043 0.077148 0.673428 
0.042286 0.078180 0.674511 
0.041027 0.079488 0.673991 
0.041472 0.080614 0.672402 
0.035117 0.081304 0.672176 
0.035240 0.082256 0.670261 
0.046683 0.082271 0.671059 
0.032532 0.082825 0.668800 
0.031373 0.082012 0.670260 
0.029044 0.082352 0.669152 
0.030411 0.082768 0.668471 
0.051782 0.017238 0.640632 
0.054626 0.017918 0.639886 
0.049923 0.019709 0.642396 
0.049659 0.018263 0.641799 
0.049253 0.045988 0.655660 
0.047816 0.046700 0.657473 
0.050369 0.046874 0.656893 
0.046173 0.045017 0.658379 
0.046175 0.045940 0.659959 
0.048519 0.019207 0.643491 
0.049336 0.021317 0.643736 
0.052820 0.013950 0.646458 
0.054848 0.014887 0.644627 
0.048690 0.023304 0.645247 
0.050151 0.022931 0.643833 
0.049677 0.012880 0.648133 
0.047443 0.012957 0.648291 
0.046664 0.016166 0.644067 
0.054055 0.031928 0.647854 
0.050318 0.029778 0.647066 
0.049895 0.033997 0.649277 
0.046713 0.019177 0.645047 
0.047294 0.017483 0.643730 
0.044104 0.016062 0.645880 
0.042817 0.016632 0.647272 
0.044060 0.017645 0.646363 
0.040039 0.011811 0.648570 
0.041428 0.014407 0.648229 
0.051280 0.026199 0.644980 
0.048124 0.026421 0.646861 
0.044710 0.043174 0.659072 
0.046548 0.043526 0.656948 
0.051560 0.052818 0.660242 
0.052476 0.050873 0.660122 
0.052720 0.040457 0.653121 
0.048823 0.041692 0.653531 
0.050732 0.042210 0.653596 
0.044659 0.025201 0.650289 
0.043162 0.018978 0.647735 
0.042000 0.020926 0.650376 
0.044943 0.019261 0.646257 
0.033536 0.001597 0.667332 
0.035307 0.000324 0.669746 
0.045660 0.017251 0.645274 
0.046513 0.023167 0.646865 
0.045924 0.020926 0.646032 
0.043408 0.043262 0.661358 
0.042184 0.042682 0.663879 
0.044024 0.044884 0.662295 
0.046036 0.046680 0.661826 
0.047127 0.039470 0.654216 
0.047548 0.042216 0.655211 
0.051800 0.047440 0.658418 
0.053679 0.045680 0.656504 
0.056124 0.012408 0.649397 
0.054073 0.013368 0.647620 
0.057067 0.013749 0.647350 
0.043228 0.041155 0.660526 
0.053412 0.043057 0.654721 
0.057245 0.043374 0.656010 
0.048335 0.044353 0.655064 
0.050479 0.044128 0.654617 
0.048942 0.048226 0.660168 
0.052741 0.048886 0.659758 
0.046289 0.048118 0.662618 
0.057292 0.050434 0.660658 
0.046746 0.052710 0.660950 
0.049112 0.050980 0.658804 
0.048539 0.053215 0.659408 
0.047080 0.049925 0.660890 
0.044101 0.048196 0.664840 
0.045862 0.050994 0.662052 
0.044118 0.050021 0.664616 
0.050539 0.054689 0.660909 
0.054694 0.052670 0.660966 
0.041960 0.048136 0.667486 
0.045264 0.054539 0.663634 
0.047035 0.056060 0.662255 
0.044847 0.052424 0.663616 
0.043052 0.053637 0.666144 
0.048032 0.058322 0.665352 
0.050864 0.057608 0.664154 
0.048552 0.057183 0.663176 
0.049086 0.056411 0.661467 
0.048243 0.055133 0.660548 
0.040025 0.006766 0.657886 
0.040246 0.005967 0.659788 
0.041522 0.039872 0.663183 
0.032302 0.006904 0.660061 
0.032539 0.008880 0.662978 
0.033598 0.009363 0.659921 
0.033041 0.006442 0.658294 
0.032944 0.005326 0.660511 
0.033142 0.004395 0.662396 
0.035272 0.006891 0.657799 
0.040762 0.008498 0.655365 
0.041610 0.007397 0.657004 
0.039460 0.013484 0.650567 
0.040022 0.016173 0.650695 
0.035293 0.010196 0.655347 
0.036227 0.012372 0.655165 
0.033868 0.007218 0.656184 
0.033805 0.008252 0.655244 
0.034282 0.009814 0.657260 
0.038479 0.015514 0.652692 
0.040411 0.018465 0.651140 
0.034168 0.012153 0.659310 
0.036595 0.010200 0.653401 
0.035210 0.008696 0.653994 
0.038689 0.009961 0.652339 
0.046017 0.010090 0.652227 
0.044401 0.011284 0.650717 
0.046483 0.011079 0.650579 
0.039009 0.010752 0.650404 
0.058048 0.054153 0.662871 
0.048430 0.009540 0.653177 
0.061372 0.016020 0.644828 
0.059053 0.015837 0.644477 
0.053759 0.011395 0.651001 
0.050399 0.009835 0.653062 
0.050522 0.008695 0.655356 
0.043375 0.005721 0.661222 
0.041843 0.006602 0.658770 
0.051470 0.007013 0.659712 
0.046885 0.007986 0.656730 
0.041398 0.023989 0.654042 
0.036638 0.029404 0.662961 
0.040394 0.010634 0.651536 
0.043251 0.008257 0.655752 
0.044625 0.009248 0.653991 
0.043031 0.010683 0.651957 
0.050892 0.010726 0.651580 
0.056129 0.015467 0.643906 
0.051587 0.013461 0.647303 
0.049695 0.013993 0.646631 
0.061890 0.017279 0.643357 
0.056988 0.014955 0.645264 
0.059816 0.014701 0.646302 
0.050935 0.018260 0.640740 
0.063757 0.016547 0.644413 
0.058635 0.010832 0.652398 
0.061876 0.020081 0.639759 
0.050324 0.037407 0.651067 
0.047816 0.036409 0.651891 
0.060612 0.019410 0.639777 
0.060870 0.021085 0.640579 
