# .PCD v0.7 - Point Cloud Data file format
VERSION 0.7
FIELDS x y z
SIZE 4 4 4
TYPE F F F
COUNT 1 1 1
WIDTH 1093
HEIGHT 1
VIEWPOINT 0 0 0 1 0 0 0
POINTS 1093
DATA ascii
-0.01242447831 -0.04328445718 0.05135729909
-0.01235336717 -0.04293641821 0.05167334899
-0.01278337184 -0.04313711822 0.05146694928
-0.01134712901 -0.04172227904 0.05294129625
-0.009467768483 -0.04365930706 0.04248391837
-0.00943065621 -0.04337584972 0.04216845706
-0.009138652124 -0.04348257929 0.04240640998
-0.01074075047 -0.04266636446 0.05208589882
-0.01518985257 -0.04033412039 0.05383010209
-0.01512896363 -0.04056253657 0.05358782411
-0.01488658879 -0.04043518007 0.05382896587
-0.01302856114 -0.04389481246 0.04222677648
-0.01345952973 -0.04399535805 0.04240484536
-0.01341612265 -0.0437227264 0.04201183468
-0.01158654038 -0.04233792052 0.04069274291
-0.01823508181 -0.04288111627 0.0406653136
-0.01865057088 -0.043057587 0.04085540026
-0.01865197532 -0.04278250784 0.04053793848
-0.01214521471 -0.04239206016 0.0408141911
-0.01239595935 -0.04257974401 0.04097931832
-0.01259907335 -0.04232889786 0.04076843709
-0.009810810909 -0.04014128074 0.03865848109
-0.009467989206 -0.04006278142 0.03871531785
-0.009683474898 -0.04023692757 0.03892127052
-0.01277107559 -0.04342070594 0.04154408351
-0.01267122198 -0.04356817156 0.04177192599
-0.01303137653 -0.04359227791 0.04182567447
-0.01273611281 -0.04370442405 0.04202474654
-0.01206995454 -0.04383590445 0.0421371758
-0.01198076736 -0.04413831234 0.04242563993
-0.01228721626 -0.04427997395 0.04269932956
-0.01189936046 -0.04440269247 0.0427082181
-0.01244240534 -0.04378924146 0.04214020446
-0.01313256286 -0.04341761395 0.0415142104
-0.006241646595 -0.04274731502 0.0417827107
-0.006078755949 -0.04302819818 0.04211406037
-0.01122349873 -0.04331088066 0.04153522849
-0.007531518117 -0.04379775003 0.04297965765
-0.007871522568 -0.04393077642 0.04309001938
-0.007845373824 -0.04360400885 0.04280752689
-0.01041874662 -0.04163642973 0.05332380906
-0.007036917843 -0.04254210368 0.04152998328
-0.007067510858 -0.04234049842 0.04130017757
-0.01012133341 -0.0437973626 0.04244992137
-0.006987065542 -0.04178453982 0.04059169441
-0.007425515912 -0.04179781675 0.04055783898
-0.007011436392 -0.04159376398 0.04028414935
-0.006774321198 -0.0437139608 0.04279051721
-0.007003583945 -0.0437900126 0.04286214709
-0.006998917554 -0.04357487336 0.04267319292
-0.008818425238 -0.04129561037 0.05368562415
-0.008751831017 -0.04138532653 0.05354412645
-0.01086416002 -0.04412877187 0.04259495065
-0.01109793968 -0.04392420128 0.0423880592
-0.01087786444 -0.04378266633 0.04222686216
-0.009049244225 -0.04254545271 0.04152600467
-0.009436583146 -0.04257226735 0.04133876413
-0.009192135185 -0.04237362742 0.04125133157
-0.008429233916 -0.03949715197 0.03812337294
-0.009309913963 -0.04179833084 0.04040447623
-0.009654437192 -0.04189874604 0.04047013074
-0.009531325661 -0.04166465998 0.04024826735
-0.01198506448 -0.04212239385 0.0405107066
-0.01193735935 -0.04361793026 0.04179881513
-0.00993918255 -0.04262318462 0.04114550725
-0.01000836864 -0.04292533174 0.04138127714
-0.01024822332 -0.04290870205 0.0412797071
-0.009234504774 -0.04031658918 0.0391283296
-0.009260579944 -0.04014759883 0.03894327581
-0.009009836242 -0.0402077958 0.03901194036
-0.009051465429 -0.04045851156 0.0392825678
-0.009059243836 -0.04066823795 0.03951037675
-0.008817684837 -0.04091096297 0.03972320259
-0.009263838641 -0.04088582471 0.03968340158
-0.008195305243 -0.03895808011 0.03762898594
-0.008399900049 -0.03917566687 0.03780206293
-0.009873329662 -0.04305913299 0.04165001959
-0.01032829937 -0.04316741228 0.04154834896
-0.01485858858 -0.03790919483 0.05618971214
-0.01477273647 -0.03823003545 0.05584279075
-0.0107634915 -0.04269021377 0.04100804031
-0.01069889683 -0.04235532135 0.04072755575
-0.01035430096 -0.0425026603 0.04089571163
-0.009443619289 -0.04025368392 0.03902282566
-0.01334382594 -0.04077200592 0.03869767487
-0.01330212131 -0.04052128643 0.03842708096
-0.01144794561 -0.04218001291 0.04048275203
-0.01067897119 -0.03626348823 0.05817413703
-0.01027585566 -0.03626374528 0.05816711485
-0.01055852603 -0.03595089912 0.0584592782
-0.007281736005 -0.04038374871 0.03901769221
-0.007444702089 -0.04010286927 0.03868636489
-0.007021510042 -0.04021230713 0.03873604909
-0.005952754058 -0.04163281992 0.04021637887
-0.008111304604 -0.04076452926 0.03948142007
-0.00851427298 -0.04267422855 0.0418266207
-0.008618644439 -0.0424942784 0.04155394807
-0.008235676214 -0.04263362288 0.04172415286
-0.007834929973 -0.04203435406 0.04087625444
-0.007476627361 -0.04203216359 0.04094496369
-0.01204973273 -0.04029918835 0.03821916133
-0.01190380473 -0.04047643021 0.03845500946
-0.008550941013 -0.03975869715 0.03842881322
-0.008573829196 -0.04224897549 0.04124451429
-0.008828795515 -0.04210692644 0.04092498496
-0.008467309177 -0.04211001843 0.04095483944
-0.01013940945 -0.03902923316 0.03736105934
-0.01424465328 -0.0374802053 0.05657853186
-0.008908500895 -0.04157274961 0.04028619453
-0.008565310389 -0.04169289023 0.04037071019
-0.008950129151 -0.04182333872 0.0405568108
-0.012276995 -0.04151990265 0.03980528936
-0.0123951463 -0.04124172777 0.03939829022
-0.01205054671 -0.04138919339 0.03956644982
-0.01169091184 -0.04191008955 0.04018629342
-0.009330728091 -0.03987754509 0.03842172772
-0.008981613442 -0.03980987146 0.03840088844
-0.00911879912 -0.03999510407 0.03869447112
-0.009837402962 -0.04101318121 0.03961463273
-0.00984962564 -0.04069453478 0.0393301174
-0.0119926203 -0.04012478143 0.03796041384
-0.01108549628 -0.04010144994 0.03823032603
-0.01107764523 -0.03989172354 0.03800246492
-0.01360827498 -0.03775824979 0.05631038174
-0.01377301663 -0.03727666661 0.05674801022
-0.0137722753 -0.03836705908 0.05574412644
-0.0135806445 -0.03817679733 0.05593246967
-0.01330375113 -0.03815810755 0.05595240369
-0.01431754231 -0.03906249255 0.05511899292
-0.01444576774 -0.03933705389 0.05482792109
-0.01831937954 -0.04281486198 0.04511286691
-0.01797285676 -0.04266855866 0.04559899867
-0.01826115511 -0.04224652797 0.04555658251
-0.01387931406 -0.03810847923 0.05597837269
-0.0141670974 -0.03808385879 0.05599138886
-0.01628490351 -0.03998092562 0.05022449791
-0.01629527658 -0.03961651772 0.05049177259
-0.01680187695 -0.03978421912 0.05007532984
-0.01467732713 -0.04068035632 0.0384169668
-0.01509103645 -0.04058741406 0.03825077415
-0.01954406314 -0.04077303782 0.0379140228
-0.01917020418 -0.040599145 0.03776083887
-0.01919065043 -0.04078721628 0.03814405203
-0.01274359506 -0.04193097353 0.04038246349
-0.01278670598 -0.0421542339 0.04056946188
-0.01308500767 -0.04203680158 0.04040922225
-0.01913850009 -0.04137308151 0.03874792904
-0.0189970918 -0.04151758179 0.03893898427
-0.01930924505 -0.04154993594 0.03887819499
-0.01553674601 -0.04291927442 0.04081063718
-0.01576593332 -0.0427474454 0.04064854234
-0.0154182259 -0.04265231639 0.04054404795
-0.01471755002 -0.04095827043 0.0387711972
-0.01503888611 -0.04092527181 0.03862087429
-0.01536570676 -0.04512789845 0.04726943001
-0.01512644347 -0.04571337998 0.04737040773
-0.01516355574 -0.04527845979 0.04786481708
-0.01791707613 -0.04075047746 0.03828246146
-0.01779218577 -0.04049447551 0.03793818504
-0.01760314777 -0.0406964682 0.03822080046
-0.01518474147 -0.04025213793 0.03791748732
-0.01446310058 -0.03948735446 0.03719231486
-0.01454176847 -0.03977352008 0.03754452616
-0.01491384767 -0.03967761621 0.03734152019
-0.01243292354 -0.04211930186 0.0405933857
-0.01705550775 -0.04109464958 0.03859979659
-0.01544874627 -0.0419549495 0.03984668106
-0.01504881214 -0.04194992036 0.03987857699
-0.01528726146 -0.04220850021 0.04009438306
-0.01549252309 -0.04155676812 0.03907035291
-0.01574793458 -0.04171171039 0.03919069469
-0.01587067731 -0.04164880514 0.03897266835
-0.01444658078 -0.04038374871 0.03819522262
-0.01421272755 -0.0403403081 0.03816833347
-0.0142205786 -0.04055042192 0.03839619085
-0.01364523638 -0.03990526125 0.03787501901
-0.01884783246 -0.04120460525 0.03866841644
-0.01869412512 -0.04142000154 0.03891019523
-0.01889220066 -0.04065689445 0.03807047009
-0.01860160567 -0.04073629901 0.03822474554
-0.01893390715 -0.04090735316 0.03834106028
-0.01822004467 -0.04060043395 0.03807751089
-0.02085504867 -0.04114221409 0.03829702735
-0.02102749422 -0.04134111106 0.0385497883
-0.02125068195 -0.0412292257 0.03851605579
-0.02044778317 -0.04196822643 0.03924222663
-0.02022948302 -0.04209661484 0.03943729028
-0.02057408169 -0.04219703004 0.03950292245
-0.0141084278 -0.04101627693 0.03890856355
-0.0145285083 -0.0411602594 0.03905383125
-0.01437295228 -0.04085811228 0.03870557249
-0.0197346583 -0.03645000979 0.03175716102
-0.0199560672 -0.03606832772 0.03136720508
-0.01936850697 -0.03623809293 0.03159806877
-0.01490784809 -0.03998556733 0.03770364821
-0.02049793117 -0.04230621085 0.04235392809
-0.02080089599 -0.04215603694 0.04214897007
-0.02057282068 -0.04249930754 0.04225514084
-0.02176609635 -0.04103767499 0.04067920148
-0.0218172092 -0.04055377096 0.0412453115
-0.0220096577 -0.04061822221 0.04056117311
-0.02060748637 -0.04169289023 0.03887204081
-0.02076897211 -0.04143920913 0.03862439096
-0.02028126083 -0.04146163538 0.03862733394
-0.01584282517 -0.04251567647 0.04041075706
-0.01401376072 -0.04217163473 0.04023287445
-0.01409057714 -0.04194012657 0.03999507055
-0.01379220374 -0.04205768555 0.04015529901
-0.02080149017 -0.04200328887 0.03921828419
-0.02054296993 -0.04185363278 0.03905909136
-0.02246803232 -0.03905552998 0.03528476506
-0.02214188129 -0.03907202929 0.03527379036
-0.02220677212 -0.03920840845 0.03552662209
-0.01916183718 -0.0417545028 0.03919761628
-0.01365679316 -0.04189423472 0.03998417035
-0.01500273775 -0.04272359982 0.04058778659
-0.0151642235 -0.04247004539 0.04034009948
-0.01475969795 -0.04249776155 0.04041672871
-0.01801448502 -0.0416986905 0.03936298564
-0.01811011694 -0.04188121483 0.03961973637
-0.01829137839 -0.04171751067 0.03934305161
-0.01816507988 -0.04148870707 0.0390824303
-0.01722595654 -0.04243807867 0.04036701471
-0.01725669764 -0.04273223504 0.04060475528
-0.02031644806 -0.04097928107 0.03811894357
-0.0205118563 -0.04126235098 0.03838156909
-0.01488733012 -0.04220347479 0.04012624919
-0.01492251456 -0.04172124714 0.03961788118
-0.01478429046 -0.04186033458 0.03984777629
-0.01279366948 -0.04152196273 0.03968378901
-0.01619008929 -0.04181779549 0.0396078378
-0.01574682258 -0.04178814963 0.03948038444
-0.01577956416 -0.04190545157 0.0398128815
-0.01605349407 -0.04026747867 0.0376495868
-0.01596601121 -0.04034391791 0.03782679513
-0.01628734916 -0.04031065851 0.03767643869
-0.01733551174 -0.04086017609 0.03838490695
-0.01574148983 -0.04101550207 0.0501736179
-0.01608971693 -0.04118359089 0.04980996624
-0.01563082263 -0.04145428911 0.05060236529
-0.02095082775 -0.0428121537 0.03995638713
-0.02137749828 -0.04249866307 0.03991787881
-0.02103082649 -0.0425751023 0.03975745291
-0.01616957039 -0.03322807699 0.06005450338
-0.01580149308 -0.032970272 0.06044708192
-0.01890509017 -0.04187477008 0.03939470649
-0.01888531446 -0.04203280807 0.03965741396
-0.01913435571 -0.0419508256 0.03946633264
-0.0198446624 -0.04196616262 0.03925118223
-0.02027074434 -0.04180219769 0.0390342921
-0.0159849003 -0.04174960777 0.03925634921
-0.01624164358 -0.0416293405 0.03905933723
-0.008822944947 -0.03307081386 0.0613880083
-0.01565971039 -0.03714982793 0.05689551309
-0.01602556929 -0.03731276095 0.05684864521
-0.01565711759 -0.0374760814 0.056622345
-0.01986236498 -0.04270477965 0.04026918858
-0.01994384639 -0.04293616116 0.04045414925
-0.02022044174 -0.04290574044 0.04022817314
-0.01792759635 -0.03826793283 0.0508486852
-0.01764418557 -0.03823622316 0.05146514997
-0.0180909317 -0.03781380504 0.05136999115
-0.02549904212 -0.03683659062 0.03731959686
-0.02572193556 -0.03667546436 0.03707977384
-0.02529814839 -0.03718218207 0.03718481213
-0.01585823298 -0.04029751197 0.05337200686
-0.01566430368 -0.04048274457 0.05349332094
-0.01573119313 -0.04019451886 0.05360716209
-0.01681520976 -0.03914266825 0.05082187429
-0.01637342386 -0.03933357447 0.05084457248
-0.01657950133 -0.03905359656 0.05134676397
-0.01911294647 -0.04186935723 0.04491665959
-0.01926946826 -0.04231768101 0.04432867467
-0.01882968284 -0.04257974401 0.0446799174
-0.01547629945 -0.03771287575 0.05643090233
-0.01396620553 -0.04011240602 0.05417780951
-0.01417131815 -0.04040308297 0.05388276279
-0.01454628631 -0.04050053284 0.05374625325
-0.01034304127 -0.04132113233 0.05368460715
-0.01075786166 -0.04139963537 0.05346246436
-0.01244662795 -0.04345937818 0.04165558517
-0.01233588438 -0.04365028441 0.04185058922
-0.015124592 -0.03918391839 0.05487091094
-0.01491747797 -0.03906996921 0.05507120118
-0.01526696421 -0.0389390029 0.05506437644
-0.01275300235 -0.04650600255 0.04831168056
-0.01247677486 -0.04633765668 0.04850999638
-0.01289278176 -0.0461169742 0.0486446768
-0.02124209143 -0.04186664894 0.04171400145
-0.02081985958 -0.04140530527 0.04256100208
-0.01713091694 -0.03874835372 0.05141878128
-0.01727803238 -0.03874255344 0.05112694576
-0.01698684134 -0.03897135705 0.05110288039
-0.0206717886 -0.04294801876 0.04211028293
-0.02228588238 -0.0405385606 0.04012907669
-0.02190165594 -0.04097683355 0.03994233906
-0.01846804656 -0.04133853316 0.03887743503
-0.01404702105 -0.04357783869 0.0419402644
-0.01410976239 -0.0433950536 0.04163070768
-0.01376842335 -0.04353723675 0.04183770716
-0.01032355987 -0.04220863059 0.04065798596
-0.009983554482 -0.04207547382 0.04054761305
-0.009979034774 -0.04235609621 0.04082613438
-0.01345279068 -0.04346105456 0.04165359586
-0.008424641564 -0.04390344769 0.05129091069
-0.008577903733 -0.04361496493 0.05151729286
-0.01344360411 -0.04306570813 0.05148299783
-0.01352560613 -0.04337017611 0.05119988695
-0.01314745191 -0.04327826947 0.05129757524
-0.01238351408 -0.04190686718 0.04032872617
-0.01414909586 -0.04208733141 0.04017017037
-0.01101045776 -0.04425664246 0.05057155341
-0.01517799962 -0.04358776659 0.04204880819
-0.0148239946 -0.04350346327 0.04186668247
-0.01487192139 -0.04374322295 0.04221495986
-0.01064134203 -0.0447855331 0.04330231249
-0.01089675259 -0.04494073242 0.04342269152
-0.01087941788 -0.04474699125 0.04307829589
-0.01102586556 -0.04128503799 0.05350440741
-0.01098801382 -0.04112739116 0.05368483812
-0.01116090547 -0.04473306984 0.04301357269
-0.01125646196 -0.04491559789 0.0432703197
-0.01160239242 -0.04424491525 0.04255101085
-0.01154246554 -0.0446209237 0.04292707145
-0.01471214183 -0.04667267576 0.04562473297
-0.0148599958 -0.04701310769 0.04597887397
-0.01509977691 -0.04674847052 0.04564356804
-0.01320300903 -0.04585568607 0.04890191182
-0.01294448692 -0.04642118514 0.04545468092
-0.01307633985 -0.04604491591 0.04491334409
-0.01215188112 -0.04461241513 0.04299580306
-0.01236877311 -0.04451135546 0.04288436472
-0.01470177155 -0.04439108819 0.05009046942
-0.01429146808 -0.04428010434 0.05026783049
-0.01457095426 -0.04397267103 0.05052109808
-0.01503370143 -0.04644078016 0.04544670135
-0.01468932629 -0.03963585198 0.05453086644
-0.01514059305 -0.03942857683 0.05462465808
-0.0150886653 -0.03979028016 0.05432058871
-0.007446554024 -0.0401901342 0.05456013232
-0.007940635085 -0.04015713558 0.05463481694
-0.007542628795 -0.04044562206 0.05434872955
-0.009959849529 -0.04383629188 0.05111671612
-0.009552214295 -0.04386954755 0.05115452409
-0.009631696157 -0.04355940595 0.05142375082
-0.01272826083 -0.04350436479 0.05112405866
-0.01379257254 -0.04046057537 0.05380204692
-0.01320360135 -0.0404096581 0.05388274789
-0.0135875335 -0.04016989842 0.05409714207
-0.02361560613 -0.03866469488 0.03485802189
-0.02369419858 -0.03845497221 0.0347427018
-0.02338952757 -0.03858323023 0.0348252058
-0.0150751844 -0.04473835602 0.04939103499
-0.01491918135 -0.04461099952 0.04974464327
-0.01815233752 -0.04391634092 0.04173284024
-0.01797389239 -0.04377764091 0.04160846025
-0.0178324841 -0.04392226785 0.04179951549
-0.01691291481 -0.04300834611 0.04672893137
-0.01699172892 -0.04331822693 0.04640695453
-0.01674965397 -0.04371048138 0.04644136503
-0.0275028497 -0.03578641638 0.03441981599
-0.02775929682 -0.03561690822 0.03401672095
-0.02752432972 -0.03612053394 0.03386678919
-0.01613838412 -0.04270065203 0.04065153375
-0.0140718352 -0.04733111337 0.04760177433
-0.01407383569 -0.0471543856 0.04769654199
-0.01424198598 -0.04693937674 0.04773260653
-0.02558733895 -0.03784513101 0.0338261053
-0.02551230043 -0.0380988121 0.03418638557
-0.02599541843 -0.03786124289 0.03399442881
-0.01065282337 -0.0433768779 0.04167058319
-0.0104038557 -0.04345899075 0.04186167568
-0.01074845344 -0.04355940595 0.04192727059
-0.006603207439 -0.04639295489 0.04883649573
-0.01268255711 -0.04769139737 0.04712736979
-0.01305322815 -0.04762294888 0.04700793698
-0.01307122875 -0.04744287208 0.04662272707
-0.01437117346 -0.04760761186 0.04673909768
-0.01401887275 -0.04754535109 0.04667942971
-0.01358953305 -0.04697108641 0.04615616798
-0.01328626927 -0.04682400823 0.04592128471
-0.0133818984 -0.04725467414 0.0464117825
-0.0138665 -0.0472377874 0.0463699922
-0.01291241031 -0.04665011913 0.0457681343
-0.01153557654 -0.04696476832 0.04612331092
-0.01399724185 -0.04693783075 0.04611836374
-0.01326078735 -0.04562778771 0.04444171488
-0.01360990293 -0.04569546133 0.04446256161
-0.01478799433 -0.04726124555 0.04637794197
-0.01506310981 -0.04725802317 0.04623555392
-0.01511940733 -0.04584653676 0.04467951506
-0.01409487333 -0.0459756963 0.0448606275
-0.01445176732 -0.04600534216 0.04487552494
-0.01422998682 -0.0458420217 0.04459187016
-0.01259196177 -0.04439947009 0.0428506285
-0.01298270933 -0.04422196746 0.04267456755
-0.01401442755 -0.04566774517 0.04438592494
-0.01441584155 -0.04564557597 0.04427043721
-0.01416502241 -0.04545776173 0.04410529882
-0.0129291527 -0.04483503103 0.04336198419
-0.01311678533 -0.04466049746 0.04316307604
-0.01283500344 -0.04462517798 0.04302166402
-0.01497340575 -0.04602390528 0.04491534084
-0.0153027419 -0.04600186273 0.04496518895
-0.01243825722 -0.04486274719 0.04332618415
-0.01222921722 -0.04517353326 0.04366544634
-0.01514281426 -0.0438221097 0.04232339934
-0.01566222869 -0.04327362776 0.0415671207
-0.01579171233 -0.04349701852 0.04186671227
-0.01601001248 -0.0433687605 0.04167165235
-0.01212899201 -0.04502374679 0.04345338792
-0.00993636623 -0.03977584094 0.03803943843
-0.009873551317 -0.03995862603 0.03834896535
-0.01007496286 -0.03993374854 0.03824941069
-0.01296641119 -0.04320814461 0.04133919626
-0.01448895317 -0.0438826941 0.04238507152
-0.01464265864 -0.04366729781 0.04214334115
-0.01436865516 -0.04359395429 0.04199605435
-0.01401494537 -0.04380689934 0.04225371778
-0.017812334 -0.04353530332 0.04138866067
-0.01754640602 -0.04372092336 0.04167525843
-0.01375331171 -0.04391053692 0.04228945822
-0.01381501742 -0.04405207559 0.04250343144
-0.01373635046 -0.04376616701 0.04215120897
-0.01604127139 -0.04204969108 0.04001090676
-0.01584593393 -0.04226238281 0.0402158089
-0.0161982365 -0.04232477397 0.04027553648
-0.0181646347 -0.04359769076 0.04144836962
-0.02140964568 -0.04301350191 0.04030575603
-0.02130609192 -0.0430678986 0.04008261114
-0.02117209136 -0.04337288439 0.0402954109
-0.01581689902 -0.04077458382 0.03825754672
-0.01614912413 -0.04094563797 0.03837388009
-0.01613075472 -0.04058071226 0.03808546811
-0.01603245735 -0.04506628588 0.04357995093
-0.01581237838 -0.04517262802 0.04365250468
-0.01621408761 -0.0451996997 0.043743141
-0.01840767637 -0.04382339865 0.04161940515
-0.01963665895 -0.04220527783 0.04396432638
-0.02003281564 -0.04211736843 0.043481417
-0.01963658258 -0.04267564788 0.04355154186
-0.02478414029 -0.02868720517 0.04620702192
-0.02453584224 -0.0288676694 0.04681027681
-0.02500081062 -0.02831441723 0.04653602839
-0.01485829148 -0.04580412433 0.04800269008
-0.01710491441 -0.04130734131 0.03886447102
-0.01741558872 -0.0411188826 0.03865354508
-0.01829700917 -0.04426218569 0.04204810411
-0.01829997264 -0.04470342025 0.04234841093
-0.01863812469 -0.04456665739 0.04210262001
-0.01658468507 -0.04488311335 0.04338991642
-0.01676631905 -0.04501652718 0.04355309904
-0.017024545 -0.0448689349 0.04327239841
-0.02021177672 -0.04425986484 0.04169267416
-0.01997147687 -0.04420353472 0.04226234555
-0.0206404496 -0.04376964644 0.04174894094
-0.01419702265 -0.04473306984 0.04332426935
-0.01444784086 -0.04492088035 0.04348942637
-0.01455539837 -0.04473526031 0.04325559735
-0.0133090103 -0.0444532223 0.0429192856
-0.01411872543 -0.04499203712 0.04364570975
-0.01358575467 -0.04422403127 0.04266554117
-0.0133441966 -0.04421887547 0.042644687
-0.01736092009 -0.04421462119 0.04243658483
-0.01707943343 -0.0442285426 0.04250130802
-0.01731788367 -0.04448699206 0.04271712527
-0.0157148242 -0.04372878373 0.04210443795
-0.0159501601 -0.04399264976 0.04228141159
-0.01603616029 -0.04369565845 0.04195412993
-0.01713610254 -0.04529766738 0.04483743757
-0.01650172286 -0.04564673454 0.04489783943
-0.01581052691 -0.04465508461 0.04306250066
-0.01554289553 -0.04481878877 0.04322657734
-0.01584764011 -0.0449382849 0.04337789491
-0.01554015279 -0.04536907747 0.04386143386
-0.01514162868 -0.04533685371 0.04380969331
-0.01567274891 -0.04558705166 0.04419977218
-0.01705343463 -0.04464541376 0.04292013496
-0.01689187624 -0.04440320656 0.04270031303
-0.01665661298 -0.04463497549 0.04299081862
-0.01637550071 -0.0423001498 0.04822843149
-0.01628253423 -0.04250961915 0.0480658561
-0.0161660891 -0.04256182536 0.04836158082
-0.01652335376 -0.04503856972 0.04361583292
-0.0162524581 -0.04495968297 0.04350733384
-0.01665565185 -0.04520730302 0.04374807328
-0.01701854542 -0.04517675564 0.04363460094
-0.01691454463 -0.04397112504 0.04602587223
-0.01715602912 -0.04372840002 0.04581299797
-0.01699017547 -0.04428629205 0.04566501826
-0.0143679874 -0.0473651439 0.04646647722
-0.01685565338 -0.04545763507 0.043965891
-0.01650327817 -0.0453953743 0.04390621185
-0.01542911585 -0.04672655836 0.04569337517
-0.01531815063 -0.04711597413 0.04591604322
-0.01550607942 -0.04699055105 0.04592311382
-0.01525348239 -0.04628673941 0.04672254249
-0.01538111456 -0.04552195594 0.04684482142
-0.01699913666 -0.04563204199 0.04433719069
-0.01696735807 -0.04566246271 0.04462294653
-0.01736269891 -0.04545222223 0.0444021225
-0.01809241436 -0.04404446855 0.04187507927
-0.01126749907 -0.04633559287 0.04538005218
-0.01145231631 -0.04646359384 0.04558210075
-0.01167372614 -0.04632992297 0.04542588443
-0.01505829487 -0.04437162355 0.0498992838
-0.01514029503 -0.04346337542 0.05088214576
-0.01537948567 -0.04359640181 0.05060207844
-0.01501451619 -0.0438035503 0.0506208539
-0.02512414753 -0.03651652485 0.03810266778
-0.025278816 -0.03667121008 0.03783267736
-0.02497066371 -0.03700365126 0.03790402412
-0.02467399091 -0.03857639804 0.03471966088
-0.02435413562 -0.03858219832 0.03478641063
-0.02461406589 -0.03870452568 0.03486191481
-0.02443799004 -0.0377182886 0.03366295248
-0.02447465621 -0.03745648637 0.03330466151
-0.02514088713 -0.03757314384 0.03342608362
-0.02539940737 -0.03772254288 0.03358528763
-0.02551467158 -0.03749902546 0.0333455056
-0.02704358101 -0.03647824004 0.03459337354
-0.02330908366 -0.03584390879 0.03066437133
-0.02298596501 -0.03560711443 0.03045843542
-0.02308122814 -0.03598827869 0.03074288182
-0.02302944846 -0.03855912387 0.03477144241
-0.0228890758 -0.03837917373 0.03443901986
-0.02486658655 -0.0386662446 0.03491575271
-0.02509184927 -0.03790558502 0.03383504599
-0.02571460046 -0.03725372255 0.03309576213
-0.02587474883 -0.03752325848 0.03339927644
-0.01907124184 -0.03821456432 0.03468712419
-0.01871723682 -0.03837827221 0.03473873064
-0.01903887093 -0.03864226863 0.03502825648
-0.02379731089 -0.03904599324 0.03525490686
-0.02392953634 -0.0387189649 0.03491964191
-0.02350493893 -0.03885547444 0.03505297005
-0.02208988182 -0.0377478078 0.03353936598
-0.02422287501 -0.03784113377 0.03389685601
-0.02440761775 -0.03796913475 0.034098804
-0.02465665713 -0.0378870219 0.0339076966
-0.02256684937 -0.03923264146 0.0355803892
-0.02721973136 -0.0367430076 0.03286231309
-0.02684557997 -0.03701563925 0.0329705216
-0.02707232349 -0.03694770485 0.03318175673
-0.02328471281 -0.03821817413 0.03442424536
-0.02356012352 -0.03801631182 0.03425415605
-0.02330449037 -0.03806000948 0.03416150808
-0.02503592335 -0.03259464726 0.02744120732
-0.0247315485 -0.03227625415 0.0272622779
-0.02461591549 -0.03269854188 0.02752974629
-0.02249766514 -0.03871432319 0.04220926017
-0.02270544507 -0.03796036914 0.04236637801
-0.0228927061 -0.03845497221 0.041782327
-0.02454769425 -0.03809984401 0.03422522545
-0.02482740209 -0.03806400672 0.03403803706
-0.02521600015 -0.03853514791 0.03490888327
-0.02531088889 -0.03837157041 0.0345197171
-0.02496777475 -0.0384917073 0.03460424766
-0.02497688495 -0.03817834333 0.03428091481
-0.0246277675 -0.03835842386 0.03449383751
-0.02173143253 -0.04062350839 0.03755569831
-0.02219299227 -0.04052231833 0.03750400245
-0.02172046714 -0.04041906819 0.0372890085
-0.02593504637 -0.03769224882 0.03369684517
-0.02564555965 -0.03769521415 0.03356141597
-0.02399887145 -0.03929451853 0.03626944125
-0.02629008889 -0.03767613694 0.03426351398
-0.02616482973 -0.03784293681 0.03485486284
-0.02635905519 -0.03745893762 0.03470588848
-0.02585601062 -0.03807689622 0.03451408446
-0.02682691067 -0.03684935346 0.03270984069
-0.02232595719 -0.0398216024 0.03643918782
-0.02262611128 -0.03997383639 0.0366351977
-0.02626616322 -0.03744578734 0.03518987074
-0.02650572173 -0.03690955043 0.03529497236
-0.026787946 -0.03676981851 0.03473448381
-0.02651683241 -0.03713770956 0.0348874703
-0.02431650646 -0.03894583508 0.03631462157
-0.02426161617 -0.03911418095 0.03594397381
-0.02146172523 -0.04217962548 0.03946808726
-0.02153950185 -0.0415998213 0.03938106075
-0.02926035598 -0.0354565531 0.03048453666
-0.02944198623 -0.03534208983 0.03041400947
-0.02898316272 -0.03538862243 0.03029843234
-0.02928746492 -0.03471536189 0.02954230458
-0.02916124463 -0.03498245031 0.02974915877
-0.02954139374 -0.03489775956 0.02974620461
-0.02942153998 -0.03515401855 0.03003074974
-0.02851323411 -0.03352584317 0.0338236317
-0.02855975181 -0.03329716995 0.03378802165
-0.02848827094 -0.03337038681 0.03348524496
-0.02865264006 -0.0359592773 0.03168006986
-0.02850278653 -0.03604358062 0.03146488965
-0.02831263468 -0.03607400134 0.03180343658
-0.02881731093 -0.03258240223 0.03506246582
-0.0286443457 -0.03302892298 0.03509885073
-0.02871782705 -0.03277897835 0.03549644724
-0.02793566696 -0.0361534059 0.03184517473
-0.02813337743 -0.03606098145 0.03217484802
-0.02917650156 -0.03101906367 0.03174692765
-0.02914390899 -0.03092728369 0.03229473531
-0.02932687476 -0.03053748049 0.03190676868
-0.02978651226 -0.0349467434 0.03001207486
-0.02905872464 -0.03302621469 0.02757225186
-0.02886160649 -0.03296910971 0.02742094174
-0.02871242352 -0.03315176442 0.02761793509
-0.02859597467 -0.03321041539 0.03413167968
-0.02844960056 -0.03573795035 0.03074915148
-0.02862174995 -0.03563972563 0.03056202829
-0.02827115543 -0.03559925035 0.03062484413
-0.02748529054 -0.03554034233 0.03076033667
-0.02765707113 -0.03539287671 0.03036710434
-0.02711284347 -0.03533925116 0.030523533
-0.02845241502 -0.03543567285 0.03034815006
-0.02805248834 -0.03543051705 0.03038003854
-0.02744070068 -0.03653624654 0.0331742242
-0.02758033015 -0.0363698341 0.03286071122
-0.02591896988 -0.03598415479 0.03186621517
-0.02576948889 -0.03586956114 0.03162334487
-0.02566823177 -0.0360442251 0.0319348909
-0.02724847384 -0.03674365208 0.033418037
-0.02714609914 -0.03674674779 0.03378544748
-0.02731884457 -0.03649886698 0.03377676755
-0.02979591489 -0.03371636197 0.02984007448
-0.02986562252 -0.0343394801 0.02984142676
-0.02980436198 -0.03402457014 0.03048006818
-0.02971591614 -0.03516755253 0.03032752499
-0.02901212871 -0.03516510502 0.02994613722
-0.02892279439 -0.03472399712 0.02953329682
-0.02840293571 -0.03497832268 0.03295877576
-0.02859678864 -0.03526332974 0.03242468834
-0.02830189653 -0.03542458639 0.03282983601
-0.02708365582 -0.03648120537 0.03227904439
-0.02711002901 -0.03660933673 0.03253385425
-0.02742706984 -0.03641030937 0.03240063041
-0.02568615414 -0.03512037545 0.03084838204
-0.02545548603 -0.03531952947 0.03109413013
-0.02572000772 -0.03540911898 0.03112491034
-0.02910731547 -0.02924677357 0.02321632951
-0.02882242203 -0.02946487814 0.02326987311
-0.02927139215 -0.03229198232 0.0309997201
-0.02903131396 -0.03203701228 0.03154167533
-0.02916035056 -0.03171527013 0.0311675854
-0.02972258441 -0.02797372639 0.0321951434
-0.02980265953 -0.03328273073 0.02898211777
-0.02977562137 -0.03330400214 0.02854887769
-0.02972169593 -0.03362007067 0.02879653871
-0.02915331535 -0.03402895108 0.02882000804
-0.02919990756 -0.03429603949 0.02925192192
-0.02939035557 -0.03406684846 0.02888571098
-0.0288316831 -0.0340128392 0.0287642628
-0.02866101265 -0.03383598477 0.02863397077
-0.02851671539 -0.03403513879 0.02899223566
-0.02760596201 -0.03225666285 0.02670664713
-0.02728921175 -0.03225705028 0.02681218833
-0.02803515084 -0.03233516589 0.02676231042
-0.02835500799 -0.03208135441 0.0264618285
-0.02795507573 -0.03207632527 0.02649370208
-0.02866952866 -0.03224042058 0.03315377608
-0.02862308547 -0.03271697462 0.03342317417
-0.02876457013 -0.032102108 0.03364487737
-0.02815693244 -0.0328444615 0.02730154991
-0.02807996795 -0.03258033842 0.02707176656
-0.02780914865 -0.03274958953 0.02719707787
-0.02692610025 -0.0327341184 0.02718713507
-0.02701839432 -0.03242604062 0.02693750709
-0.02672920562 -0.03247824684 0.02700811997
-0.02738914266 -0.03260547295 0.02705183625
-0.02777070366 -0.0324934572 0.02696531639
-0.02801411413 -0.03326429799 0.02781000361
-0.02793085575 -0.03301100433 0.02750253305
-0.02770166658 -0.03318283334 0.02766468003
-0.0240609441 -0.02859632857 0.02341713011
-0.0244181361 -0.02867508866 0.02363811061
-0.02309818938 -0.03129684925 0.02594377473
-0.02352464385 -0.03167801723 0.02640051395
-0.02364760824 -0.0311682038 0.02592101321
-0.02147090808 -0.03606111184 0.03104355372
-0.02702239715 -0.02560010366 0.04495744407
-0.026766764 -0.02589181066 0.04509854689
-0.02735269628 -0.0285956841 0.04180051386
-0.02746744081 -0.02829907835 0.04202885553
-0.02767825685 -0.02848057263 0.041399315
-0.02195484005 -0.02942375839 0.02422184497
-0.02222077176 -0.02899025567 0.02370152622
-0.02130557224 -0.02920384891 0.02400495112
-0.02570452541 -0.03354981914 0.02791823074
-0.02856678888 -0.03363102674 0.03295715898
-0.0286187157 -0.03302131593 0.03302749991
-0.02948517352 -0.02907520346 0.03133168072
-0.02960858308 -0.02935866266 0.03175954148
-0.02852656879 -0.03360266984 0.03439122438
-0.02859404869 -0.03316452727 0.03468343616
-0.02785714902 -0.03614064306 0.03260701522
-0.02814204246 -0.03592253849 0.03255346417
-0.0279353708 -0.03513636068 0.03002981097
-0.02757381275 -0.03513945267 0.03005968034
-0.028264191 -0.0347965695 0.03342299536
-0.02850108407 -0.03433870524 0.03302115947
-0.02827670984 -0.03499417752 0.02982283384
-0.02797055617 -0.03490188345 0.02975520119
-0.02734403126 -0.03571345657 0.0349407196
-0.02731765807 -0.03536297008 0.03533246368
-0.02757669985 -0.03533770517 0.03478973359
-0.02772684954 -0.03626555204 0.03215670213
-0.02756321803 -0.03620006889 0.03184211254
-0.02892567962 -0.0318008624 0.0347456038
-0.02891797945 -0.03208689764 0.03498531133
-0.02889479138 -0.03148298711 0.03518209606
-0.02905205637 -0.03130819276 0.03207619116
-0.02892501839 -0.03145308048 0.03254514188
-0.026766764 -0.03477014601 0.03007396683
-0.02638223767 -0.03444105387 0.02986017987
-0.02631949633 -0.0346237123 0.03016972728
-0.02787292935 -0.03561613709 0.03077913262
-0.0261022374 -0.0373295173 0.03311466426
-0.02642386965 -0.03709762171 0.03293657303
-0.02620060556 -0.03720963746 0.03297032416
-0.02689580247 -0.03348059952 0.02809059992
-0.02680580132 -0.03366093338 0.02864111215
-0.02738706581 -0.03350225464 0.02833255008
-0.02748914249 -0.03491361439 0.0298358053
-0.02771981247 -0.0349622108 0.02982378751
-0.02773848176 -0.03463260457 0.02961703017
-0.02504147962 -0.03342787549 0.02783569694
-0.02478162199 -0.03380130976 0.02822766826
-0.02536140941 -0.03366995603 0.02800273523
-0.0251174774 -0.03017371707 0.02614115924
-0.02488051169 -0.03013581969 0.02607547492
-0.02288344502 -0.0336510092 0.02828159556
-0.02226121537 -0.03390533477 0.02896545827
-0.02278226055 -0.03407355398 0.02882683277
-0.02850545198 -0.03596507758 0.0319717899
-0.0284387134 -0.03578319401 0.0322707817
-0.0183299724 -0.03497793525 0.03051086888
-0.01800411567 -0.03504367918 0.03070594929
-0.01884442195 -0.03657117859 0.03216534108
-0.0189227201 -0.03631221503 0.03184393048
-0.01861975342 -0.03646238521 0.03204891831
-0.0244691018 -0.03347196057 0.02784860507
-0.02439680323 -0.03367098793 0.02804159373
-0.01463310327 -0.03931785002 0.03667663783
-0.01425043121 -0.03925855458 0.03681913018
-0.01519311126 -0.03522697836 0.03159802407
-0.01480873581 -0.03539364785 0.0318518579
-0.01519318484 -0.03547498584 0.03183185309
-0.02044844814 -0.03626142442 0.03155319393
-0.02067200653 -0.03644653037 0.03195929527
-0.0176590737 -0.03705224767 0.03300626203
-0.01811582223 -0.03693442792 0.03279330581
-0.01765870489 -0.03675499558 0.03256645054
-0.02128431201 -0.03591132537 0.0307190381
-0.02109527215 -0.03586530685 0.03076790832
-0.02677891031 -0.03636171296 0.03212777153
-0.02674683556 -0.03659077361 0.03244121373
-0.02040644921 -0.0369294025 0.03268574923
-0.02016911097 -0.03684213385 0.03241404146
-0.02007562667 -0.03697877005 0.03271955252
-0.02868515812 -0.02882371284 0.03737968206
-0.01900242455 -0.03602591902 0.03143895045
-0.01980221458 -0.0357879661 0.03114141896
-0.02011148073 -0.03562696278 0.03101410903
-0.02340004779 -0.03605904803 0.03096588701
-0.02317745239 -0.0362694189 0.03141180426
-0.02358197793 -0.03624157608 0.03133514524
-0.02209847607 -0.03492998332 0.0299981162
-0.02190024778 -0.0349493213 0.03013650142
-0.02208439633 -0.03522672132 0.03016011417
-0.02805581689 -0.03161743283 0.03817848116
-0.02818752453 -0.03121744469 0.03831131756
-0.02828500792 -0.03144560382 0.03801630437
-0.02073719352 -0.03566421568 0.03080893122
-0.02052667364 -0.03575444967 0.03099803254
-0.01393168606 -0.0370298177 0.03402401879
-0.0138273146 -0.03720976785 0.03429675102
-0.01358256862 -0.03696214408 0.0340032205
-0.01985947601 -0.03670614213 0.03210148215
-0.02013777569 -0.03644962236 0.03176411614
-0.01891464554 -0.03461494669 0.03021350689
-0.01856834814 -0.03449261561 0.03002540395
-0.01863612235 -0.03482209146 0.03034474514
-0.01830071025 -0.03465632349 0.03018955886
-0.0205191914 -0.03534595668 0.03074254654
-0.02028874122 -0.03485057876 0.03049305826
-0.01995340362 -0.03518070281 0.03080541641
-0.0237044245 -0.0306199789 0.04568714648
-0.02336849086 -0.03109949827 0.04582108185
-0.02356708609 -0.03041089885 0.04606781155
-0.02945850417 -0.02555898391 0.03666308895
-0.02932783589 -0.02538689785 0.03577300534
-0.02935658023 -0.02610566095 0.03614962101
-0.02946828306 -0.0250962209 0.03651817888
-0.02257210761 -0.02987272665 0.02475221083
-0.02281188965 -0.029608218 0.02441688627
-0.02228743769 -0.02964431047 0.02454430982
-0.02473243698 -0.03314222768 0.02770154551
-0.02515703626 -0.03300559148 0.02756822109
-0.02028318867 -0.03111561202 0.02682525665
-0.02129764482 -0.03139997274 0.02658296004
-0.02079319395 -0.03083125129 0.02618622035
-0.02768626064 -0.02627297863 0.02793969959
-0.02805781737 -0.02707050182 0.02825953066
-0.02778596245 -0.02659768425 0.02885355055
-0.02727432549 -0.03028959967 0.0402093716
-0.02762692235 -0.0299053397 0.0400076136
-0.02743151411 -0.03058839776 0.03979975358
-0.02737136558 -0.02972655185 0.04056150466
-0.02407516912 -0.03365487605 0.02798582986
-0.02420924418 -0.03384552151 0.02824058384
-0.01390472241 -0.02980905026 0.02584766597
-0.01420769002 -0.02965887636 0.02564265579
-0.02114697918 -0.03401606157 0.02966937423
-0.02058096789 -0.03404944763 0.02975998819
-0.02104549669 -0.03438936546 0.03000862151
-0.02329352684 -0.03108415939 0.02573886886
-0.02303041145 -0.03096724488 0.0256244503
-0.0162276458 -0.03031886183 0.02612797916
-0.01617090218 -0.03068932891 0.02654283866
-0.01661209576 -0.03064795025 0.02634173259
-0.02406664938 -0.02952675149 0.04666120559
-0.02419405803 -0.02943084762 0.04639837891
-0.02390768193 -0.02967640758 0.04653555527
-0.02603089996 -0.03259065002 0.02720021829
-0.02565733902 -0.03246600181 0.02725312486
-0.0257325992 -0.03270820901 0.02736043185
-0.02311411873 -0.03394761309 0.02850338817
-0.02391679771 -0.0334071219 0.02780484781
-0.02374582924 -0.0336769186 0.02793600783
-0.01450317539 -0.02934822068 0.02541592717
-0.01460162271 -0.02972397394 0.02573917434
-0.01492325496 -0.02949207649 0.02556117997
-0.02755544148 -0.02488662489 0.02676104009
-0.02757188305 -0.02542853355 0.02695470676
-0.02758085169 -0.02533920296 0.02753932774
-0.02756647579 -0.02462056838 0.02744048834
-0.02344590053 -0.03089608997 0.02558071166
-0.01607853174 -0.03171720356 0.02816801891
-0.01610712335 -0.03144444525 0.02760961279
-0.01572586037 -0.03160570189 0.02790224925
-0.01744410954 -0.03042907268 0.02596456558
-0.0172518827 -0.03063634969 0.02620828897
-0.01757351682 -0.03065233305 0.02626406029
-0.01405842882 -0.02934589982 0.02537210286
-0.01378294267 -0.02905200049 0.0250746347
-0.01697084121 -0.02236476354 0.06461473554
-0.02504436858 -0.02836288512 0.04602107406
-0.02519888803 -0.02826955914 0.04551728442
-0.02489888482 -0.02861308679 0.04578880966
-0.01717410423 -0.02142260969 0.06701765209
-0.0172995124 -0.02224759012 0.06736139208
-0.0138320541 -0.03018312715 0.02674252912
-0.01400309429 -0.03040909395 0.02707890421
-0.01438265387 -0.03047393262 0.02689757943
-0.01954532415 -0.03104858287 0.02707528695
-0.01983458549 -0.03124438599 0.02723842487
-0.0247805845 -0.0288658645 0.0453155078
-0.02507688291 -0.02867727913 0.04482676834
-0.02468465827 -0.02935234457 0.04467368871
-0.02385294437 -0.02962213941 0.04681153223
-0.02416598424 -0.02930632792 0.04690145701
-0.01708891615 -0.03163702413 0.02791515365
-0.0144833969 -0.03434218839 0.03061606735
-0.01545844879 -0.0393085666 0.03624946997
-0.01536992844 -0.03946144506 0.03671631962
-0.01579245366 -0.0395016633 0.03648824245
-0.02725965902 -0.02880515158 0.04163794219
-0.01570430398 -0.03633000329 0.03274612129
-0.01563022844 -0.03601122275 0.03234913945
-0.01549200527 -0.03615044057 0.03257898986
-0.01273152046 -0.03646973148 0.03344607353
-0.01305908058 -0.03642577678 0.03337335587
-0.0131296739 -0.03620496765 0.03305794299
-0.01568956301 -0.02984630316 0.06340893358
-0.01564460061 -0.02957728133 0.06377375126
-0.01583963819 -0.02956335992 0.06359647959
-0.01885398105 -0.03680281714 0.0325156562
-0.01858664304 -0.03701576591 0.03288587183
-0.01898516715 -0.03704812005 0.03293763101
-0.01355753187 -0.04067635909 0.03854741901
-0.01377620362 -0.04084509239 0.03879222646
-0.01347642019 -0.04098984972 0.03903604299
-0.01625416242 -0.03384461999 0.03012363426
-0.0159787517 -0.03404648229 0.03029374592
-0.01856153086 -0.03661229834 0.03231362998
-0.01830441505 -0.03643544391 0.03207086027
-0.01814930141 -0.03667816892 0.03239624947
-0.01363249682 -0.0326596126 0.02909617126
-0.01765359007 -0.03549896181 0.03123629838
-0.01725536399 -0.03551584855 0.03139064088
-0.01752136648 -0.03582612053 0.03157152981
-0.01485770009 -0.03506120667 0.03144287318
-0.01282618754 -0.03893603757 0.0367706269
-0.01250166539 -0.03897457942 0.03688211739
-0.01797159761 -0.03472760692 0.03034580871
-0.01570074819 -0.035790544 0.03203364462
-0.01537615247 -0.03533306345 0.03167758137
-0.01602371782 -0.03528330848 0.03153821826
-0.01589312404 -0.03488847986 0.03129468113
-0.01557156164 -0.03512037545 0.03147268295
-0.01867775433 -0.03507281095 0.030615367
-0.01902087033 -0.03495267034 0.03053078428
-0.01616223529 -0.03494532406 0.03128067404
-0.01732306741 -0.03341576084 0.02957837284
-0.01702328399 -0.03356051818 0.02982221916
-0.01725225337 -0.03383534029 0.0299215056
-0.01881175488 -0.0352634564 0.03087007999
-0.0193028003 -0.03235926852 0.02851293609
-0.01895227842 -0.03256680444 0.02880945429
-0.01940132119 -0.03273515031 0.0288361907
-0.0161788296 -0.03100759163 0.06050189957
-0.01425028313 -0.03754710406 0.03450851887
-0.01454732381 -0.03820051625 0.03513324261
-0.01434591506 -0.03822539374 0.03523281217
-0.01435828488 -0.03840250522 0.03541587293
-0.01482110657 -0.03847263008 0.03530824184
-0.02600993589 -0.03452110291 0.03851005435
-0.02614053339 -0.0339496769 0.03869882971
-0.02635475807 -0.03417499736 0.03831423074
-0.01779166795 -0.03727022186 0.03334467113
-0.01738543995 -0.03727602214 0.03329886124
-0.01756107062 -0.03746924922 0.03359046206
-0.02033340931 -0.03725410998 0.03337460756
-0.02084267698 -0.03734330833 0.03346512467
-0.02068541571 -0.03701911867 0.03299441189
-0.01314567309 -0.03838536143 0.03603028506
-0.01327019464 -0.03834424168 0.03593470901
-0.01289344858 -0.03822474927 0.03594877571
-0.01270722318 -0.03787645325 0.03559663892
-0.01583364047 -0.0374956727 0.03377463669
-0.01551082078 -0.03706036881 0.03354109079
-0.01533696428 -0.03738468885 0.03383947164
-0.01963599026 -0.03870439902 0.03514770791
-0.01986258477 -0.03838832676 0.03512515873
-0.01968095265 -0.03825504333 0.03496195003
-0.01457065623 -0.03858206794 0.03558301181
-0.0150249619 -0.03931178898 0.0364446044
-0.01469095424 -0.03911882266 0.03620582819
-0.01354056969 -0.04053198546 0.03840914369
-0.01665913314 -0.03654398024 0.03261845186
-0.01688202471 -0.03638285398 0.0323786363
-0.01650676131 -0.0362361595 0.03230907768
-0.0197419934 -0.03708266839 0.03292061388
-0.01978754997 -0.03695427999 0.03250053152
-0.01934776269 -0.03696833178 0.0326180011
-0.01559311524 -0.03547988459 0.03179997578
-0.0160682369 -0.03572725132 0.03187538311
-0.02085400932 -0.03809275106 0.03440537304
-0.02111683041 -0.03791254759 0.03407999501
-0.02061245032 -0.03783971444 0.0341507718
-0.02456362173 -0.03881641477 0.03512073308
-0.01932835765 -0.03839142248 0.03492995352
-0.01937309839 -0.03814096376 0.03477183729
-0.01416191179 -0.03990745172 0.03775351495
-0.01384975761 -0.03962721676 0.03758052737
-0.01416642964 -0.03962669894 0.03747501224
-0.01787863299 -0.03880674765 0.03506592661
-0.01820804365 -0.0387847051 0.03511573374
-0.01806307957 -0.03863762692 0.0348280929
-0.01092045661 -0.04296529293 0.04127265513
-0.01122653484 -0.04280970618 0.04110652953
-0.02006036788 -0.03926229104 0.03550960124
-0.02030192874 -0.03901969641 0.0352967605
-0.01999577507 -0.03892727196 0.03522914648
-0.02425109595 -0.03823918849 0.03450789675
-0.02402183414 -0.03841101378 0.03467002884
-0.02788225934 -0.03582560271 0.03335815668
-0.02787989005 -0.03595321998 0.03305731341
-0.02769403718 -0.03614992276 0.03337877989
-0.01983110607 -0.0387272127 0.04673239216
-0.0194233954 -0.03900809214 0.0470039174
-0.0197244361 -0.03856427968 0.0471169278
-0.01721343771 -0.04030163586 0.03763961419
-0.01756433025 -0.04039122537 0.03778292984
-0.02018992603 -0.03707944602 0.03300333023
-0.022494331 -0.03722420335 0.03299524263
-0.02287596464 -0.03736006841 0.03314249963
-0.02300041355 -0.03707106784 0.03281313553
-0.01979947463 -0.0373063162 0.03338553011
-0.02303159796 -0.03791022673 0.03372448683
-0.02300582081 -0.0381283313 0.03411561623
-0.02080919594 -0.03759969771 0.03386221081
-0.02116897702 -0.03757468984 0.03370987624
-0.01584926993 -0.0319721736 0.06118108705
-0.01572423056 -0.03169232607 0.06151100621
-0.01603208482 -0.03155852482 0.06146732718
-0.02178424411 -0.03966408223 0.03622223437
-0.02168868855 -0.03948155418 0.03596552089
-0.021428762 -0.0396072343 0.03612369299
-0.02291915193 -0.03929490224 0.0356400758
-0.02261936851 -0.03943966329 0.03588389605
-0.02019229345 -0.04010183737 0.03681132197
-0.02028503828 -0.04033888876 0.03723527864
-0.02066941373 -0.04017208889 0.03698153794
-0.0202468168 -0.03866843507 0.03513283283
-0.02007592469 -0.03968187049 0.03596527502
-0.01976947486 -0.0395404622 0.03569157794
-0.02317634039 -0.03828791156 0.0411381796
-0.02347012423 -0.03748484701 0.04120177031
-0.02350560389 -0.03776998073 0.04072040319
-0.01755981334 -0.03848822787 0.03460913897
-0.01707980596 -0.03847237304 0.03460612148
-0.01732914336 -0.03868738189 0.03485491499
-0.01584393531 -0.03978525102 0.03708148748
-0.01564111933 -0.03983732685 0.03726467118
-0.01597941853 -0.03994857147 0.03725260496
-0.01886724122 -0.04050143808 0.03773202002
-0.0185459014 -0.04053456336 0.03788240254
-0.01516777743 -0.03986001387 0.03754546493
-0.01518014818 -0.04003699869 0.0377284959
-0.0154552646 -0.0400339067 0.0375860855
-0.01861256734 -0.03875698894 0.03503909707
-0.01944183931 -0.03958429024 0.03576420248
-0.01948665455 -0.03982959315 0.03607365862
-0.01973880827 -0.03974206746 0.03592138365
-0.01682098582 -0.03948928788 0.03608395904
-0.01649468765 -0.03925803676 0.03583920375
-0.01641646214 -0.03951700404 0.03616061062
-0.01680009812 -0.04069182649 0.03824567795
-0.01639801823 -0.03793613613 0.03402908891
-0.01651327871 -0.03771287575 0.03378934786
-0.01622868329 -0.03773208335 0.03381521255
-0.02346130647 -0.03519823402 0.04335514456
-0.02379197814 -0.03512346745 0.04244104028
-0.02356627211 -0.03558700532 0.04308189824
-0.01601290144 -0.03969231248 0.03685552627
-0.01629438624 -0.0399261415 0.03702457249
-0.01692958176 -0.03873146698 0.03509291261
-0.0142950993 -0.03804016113 0.03505175933
-0.01458080579 -0.03794438392 0.03473611176
-0.01529903896 -0.03841745853 0.03498262912
-0.01584786177 -0.03843846917 0.03478140384
-0.01546622533 -0.03830260783 0.03463421762
-0.01940657757 -0.03788470477 0.03437475488
-0.01902501844 -0.03799672052 0.03446122259
-0.01718388125 -0.03945886716 0.03597046435
-0.01723995432 -0.03970971331 0.03651890904
-0.01755032875 -0.03947227448 0.03610192239
-0.01240470167 -0.03881951049 0.0367089808
-0.01479992084 -0.03890600428 0.0358883515
-0.01508599799 -0.03885946795 0.03577884287
-0.01483058743 -0.03870439902 0.03565850854
-0.01761870459 -0.04086803645 0.03844266385
-0.0178772267 -0.04101756588 0.0386018604
-0.02341730893 -0.03722046688 0.03291957825
-0.02319582179 -0.03735413775 0.0330757685
-0.01937769167 -0.03714041784 0.03311777487
-0.02388916351 -0.03819780797 0.03899516165
-0.02402294613 -0.03762096539 0.03922284767
-0.02413324453 -0.03785131872 0.0384090133
-0.01807226427 -0.03953994811 0.03634779155
-0.01801189594 -0.03937108442 0.03605025262
-0.01785389148 -0.03966846317 0.03654285893
-0.02334597148 -0.03589224815 0.04318214208
-0.02286485396 -0.03595283255 0.04346888512
-0.02322863601 -0.03557437286 0.04350612313
-0.01706862077 -0.04186587781 0.03966255486
-0.01699810103 -0.04208681732 0.03997804597
-0.01737018116 -0.04199104011 0.03977496922
-0.01952680387 -0.04057955369 0.03756964207
-0.02014214732 -0.04148342088 0.04378281534
-0.02052193135 -0.04110160843 0.04334006459
-0.02039133944 -0.04167303815 0.04315124452
-0.02067897283 -0.04040385783 0.03733179718
-0.02108349465 -0.04037614167 0.03725515679
-0.0220152121 -0.03976204991 0.03641634062
-0.0220353622 -0.03990100697 0.03659344837
-0.01927450299 -0.04114543647 0.04508170858
-0.01893020421 -0.04134214297 0.04545595124
-0.01917642914 -0.04059631005 0.04561108351
-0.02157105878 -0.04129960388 0.04109025747
-0.02137068287 -0.04075357318 0.04198708385
-0.02024274319 -0.04120563343 0.03839555383
-0.01993977278 -0.04110779613 0.03836678714
-0.02011051774 -0.04128478095 0.03849707544
-0.0216709841 -0.04092656076 0.03839986026
-0.02126727626 -0.04107647389 0.03821446002
-0.01977858506 -0.04019490629 0.0369775407
-0.0195542872 -0.04038323462 0.03730095923
-0.01986673474 -0.04046469927 0.03744629025
-0.02212565951 -0.03833986074 0.04282506555
-0.02205713652 -0.04006664827 0.04155658931
-0.02200758085 -0.03983036801 0.04196610302
-0.02228558622 -0.03977248818 0.04165645689
-0.02122935094 -0.0421092473 0.0393576324
-0.02581222914 -0.03822720051 0.03505660594
-0.02473251335 -0.03751268983 0.03771527112
-0.02499384806 -0.0373595506 0.03747342527
-0.02474673092 -0.03773530573 0.03734654561
-0.02500806935 -0.03758242354 0.03710473329
-0.02252047881 -0.0375511013 0.03327770531
-0.0252839271 -0.03695943579 0.03755352646
-0.0246131029 -0.0388064906 0.03603194281
-0.02379753441 -0.03355381638 0.0431387499
