# .PCD v0.7 - Point Cloud Data file format
VERSION 0.7
FIELDS x y z
SIZE 4 4 4
TYPE F F F
COUNT 1 1 1
WIDTH 1268
HEIGHT 1
VIEWPOINT 0 0 0 1 0 0 0
POINTS 1268
DATA ascii
-2.679953519 3.385222826 -7.738166597
-2.536345112 3.311672339 -7.75659588
-2.284148186 3.296818916 -7.901831624
-2.63221769 3.504618451 -7.733584337
-2.631025118 3.524004997 -7.716222634
-2.361380473 3.270110361 -7.918753398
-2.649785691 3.345147105 -7.774373867
-2.636081478 3.346757927 -7.749181743
-2.642514394 3.356411864 -7.737127602
-2.430287044 3.290354293 -7.871960654
-2.455258352 3.278996001 -7.888013771
-2.164870421 3.304532898 -7.948598891
-2.223764736 3.27873501 -7.964286985
-2.382846486 3.268913696 -7.915127495
-2.646941017 3.290591003 -7.87923125
-2.695685634 3.314023078 -7.886356298
-2.513827939 3.289395542 -7.797726504
-2.173742126 3.315479845 -7.882017674
-2.161337844 3.323813667 -7.870415853
-2.241603985 3.287817027 -7.939726547
-2.546160259 3.292340347 -7.795482514
-2.535806569 3.298954303 -7.784181353
-2.454937966 3.292122478 -7.859237724
-2.341566892 3.303629976 -7.851691867
-2.374661728 3.279987817 -7.87498859
-2.156263037 3.326086489 -7.896026255
-2.148198295 3.332252846 -7.86209094
-2.165396776 3.314797603 -7.933461474
-2.14755817 3.351533033 -7.779877686
-2.34331883 3.31473948 -7.824934159
-2.367497223 3.300500492 -7.846735117
-2.519900072 3.298313834 -7.784658857
-2.429237881 3.298261843 -7.851406652
-2.551388002 3.299081687 -7.782497787
-2.572081826 3.430115686 -7.692647119
-2.561379466 3.293267029 -7.795055642
-2.563003565 3.278667993 -7.825151477
-2.55125131 3.281097333 -7.816021494
-2.546515071 3.274016936 -7.830040876
-2.56752376 3.288097501 -7.805963722
-2.568327581 3.299901679 -7.781947628
-2.556545078 3.306046706 -7.766555596
-2.373822796 3.312534727 -7.816197026
-2.606148486 3.394366916 -7.721681846
-2.684214361 3.401274587 -7.737395656
-2.697738196 3.41015925 -7.736542132
-2.527074491 3.327465149 -7.716435952
-2.565520322 3.316360749 -7.730136362
-2.572606343 3.320394215 -7.718141776
-2.619629999 3.388503838 -7.725570636
-2.583269653 3.385033662 -7.70399688
-2.585322774 3.406600733 -7.709072859
-2.594409046 3.415050075 -7.714918134
-2.607089876 3.455819495 -7.722660707
-2.607765673 3.375819752 -7.719553257
-2.591403116 3.369914776 -7.708149257
-2.575331179 3.4097113 -7.701735124
-2.604979905 3.409693608 -7.721660046
-2.263542368 3.384416709 -7.695189403
-2.222386969 3.400669755 -7.652315185
-2.305599794 3.401652206 -7.631882367
-2.478331176 3.34025778 -7.714344527
-2.453399014 3.35162378 -7.694167501
-2.452102531 3.342884393 -7.728503052
-2.465712403 3.338543099 -7.734666427
-2.627164354 3.427724797 -7.729848147
-2.587351007 3.395721925 -7.70920736
-2.569849923 3.386046397 -7.692830372
-2.626752087 3.339837988 -7.751432547
-2.586634504 3.304397314 -7.780042337
-2.647539358 3.380916676 -7.727255395
-2.638365218 3.373868514 -7.723516738
-2.648369872 3.368708545 -7.726629571
-2.506832724 3.296836523 -7.786636095
-2.573809676 3.304826483 -7.768859099
-2.593176868 3.285136932 -7.827217526
-2.642150191 3.408699031 -7.733272513
-2.709008154 3.339269194 -7.858306613
-2.699967717 3.396277365 -7.740447855
-2.602847899 3.330713071 -7.733221976
-2.615037229 3.281028732 -7.863773029
-2.562976381 3.283190851 -7.813821623
-2.579812717 3.29480323 -7.798639025
-2.631745174 3.258706118 -7.912743635
-2.627454677 3.34503211 -7.739836328
-2.648552332 3.438065464 -7.738346463
-2.494257319 3.300265643 -7.784851549
-2.555505714 3.312984385 -7.74608792
-2.444020555 3.298426512 -7.848850165
-2.619294831 3.436803475 -7.726797647
-2.619888653 3.451415591 -7.728389295
-2.555362725 3.287010416 -7.805490658
-2.655588396 3.389039915 -7.732108514
-2.495373785 3.435531019 -7.435249465
-2.482238191 3.429858313 -7.446653554
-2.51039175 3.436639645 -7.445538993
-2.668113083 3.464302219 -7.742815151
-2.655612125 3.401915095 -7.736031632
-2.628515245 3.414045208 -7.730195373
-2.615444008 3.421111902 -7.725577306
-2.603395356 3.4220096 -7.719691216
-2.639101582 3.424971534 -7.733841732
-2.431048446 3.302648186 -7.834337945
-2.513990029 3.265138822 -7.847717039
-2.602092884 3.469309747 -7.714621899
-2.58550791 3.448181101 -7.706751054
-2.669753249 3.409503477 -7.740582752
-2.694153011 3.437073412 -7.743667085
-2.421826979 3.355390214 -7.70846221
-2.424289138 3.370067029 -7.656906293
-2.398720162 3.365699795 -7.692315252
-2.611372224 3.444606264 -7.723055396
-2.630813059 3.459841191 -7.735296189
-2.641103422 3.467262758 -7.739681052
-2.630727111 3.39876721 -7.729252352
-2.617253324 3.404213315 -7.726580531
-2.230261528 3.289836946 -7.93409794
-2.334827412 3.27246507 -7.934527238
-2.548467 3.268774727 -7.845259455
-2.478827685 3.276993037 -7.867977693
-2.464550544 3.258609536 -7.927927149
-2.528673242 3.259800226 -7.870415334
-2.512399102 3.262797852 -7.861857224
-2.577233543 3.285272714 -7.816827729
-2.479414236 3.30545225 -7.784445266
-2.441366659 3.30704691 -7.819552963
-2.340426596 3.257891509 -7.966102316
-2.177424968 3.241640614 -7.987502335
-2.569048967 3.251981488 -7.903198542
-2.577494457 3.278707273 -7.833573268
-2.561642912 3.273410714 -7.840336283
-2.487401539 3.276234032 -7.853036844
-2.231601243 3.256749974 -7.979236958
-2.394265977 3.257050377 -7.964997066
-2.382612792 3.263056074 -7.954184499
-2.382432031 3.257099332 -7.970111192
-2.217129398 3.222481591 -7.988265686
-2.247733384 3.259083797 -7.977578227
-2.240405827 3.242955795 -7.983541862
-2.653641324 3.466364779 -7.740791601
-2.737509187 3.383647831 -7.804621083
-2.698322867 3.363012221 -7.800320815
-2.66322618 3.436416883 -7.743759626
-2.672557359 3.449757902 -7.743639049
-2.647163424 3.479704921 -7.741808988
-2.686792617 3.449116072 -7.744410186
-2.618612024 3.272525954 -7.886276668
-2.685959694 3.420186496 -7.741366981
-2.660253863 3.542371982 -7.731882959
-2.666232998 3.508161016 -7.741394232
-2.367781146 3.260386883 -7.96395592
-2.631634063 3.475807987 -7.738624506
-2.693238682 3.459185945 -7.745683177
-2.724342712 3.517558422 -7.741830418
-2.692752885 3.470621641 -7.745661858
-2.66440016 3.481088849 -7.743318169
-2.707181059 3.440412174 -7.746090938
-2.589211748 3.273881254 -7.856821128
-2.670322951 3.424270998 -7.74332059
-2.693470944 3.499918266 -7.741806273
-2.696146558 3.532728863 -7.738000732
-2.707082176 3.352598539 -7.835072108
-2.728902375 3.552918856 -7.732183675
-2.675363629 3.579850221 -7.710286339
-1.540396316 4.562644262 -7.890122802
-2.004192118 3.457691701 -7.902051654
-2.619050481 3.257247198 -7.909658756
-2.604396112 3.26406713 -7.890966704
-2.231594399 3.36362534 -7.761689875
-2.197956877 3.354749208 -7.768363441
-2.566219194 3.24716133 -7.915386776
-2.574739979 3.268161199 -7.863945517
-2.49547452 3.265128228 -7.8888557
-2.481736317 3.271608846 -7.883156832
-2.392745984 3.250968605 -7.973448738
-2.383275181 3.248404439 -7.977296119
-2.298446956 3.234084789 -7.989836218
-2.076606378 5.150605078 -7.849383925
-1.942587072 3.484704411 -7.988117925
-1.954897674 3.473516274 -7.987567867
-2.246537902 3.273898937 -7.966993305
-2.234438185 3.270782184 -7.972635522
-2.220815281 3.268447169 -7.975654587
-2.558272197 3.267159704 -7.857316391
-2.406860193 3.267902005 -7.92009296
-2.287717174 3.2427404 -7.9840456
-2.272627246 3.241763853 -7.984684355
-2.279209407 3.252668192 -7.978272136
-2.292206858 3.252886394 -7.976683006
-2.301671353 3.244962495 -7.982240092
-2.303467547 3.253695798 -7.974752021
-2.273741739 3.264050116 -7.971651785
-2.26461519 3.282783542 -7.946211247
-2.29269358 3.272847974 -7.95448362
-2.4836071 3.267818061 -7.8962905
-2.325230733 3.263644828 -7.957860885
-2.351853271 3.262513902 -7.959084401
-2.372921692 3.267384712 -7.934898531
-2.508613329 3.256554488 -7.91285133
-2.017800575 3.422431185 -7.981345571
-2.545990111 3.261550778 -7.868840527
-2.542084745 3.257843699 -7.883758991
-2.560920387 3.261795283 -7.876053505
-2.599725616 3.273105121 -7.866068078
-2.18949296 3.318280381 -7.872463198
-2.187967228 3.312508349 -7.886331692
-2.061358047 3.361728191 -7.98636667
-2.438807169 3.340490168 -7.737318173
-2.003496714 3.430845008 -7.987118068
-1.995465458 3.44473379 -7.981122949
-1.983919004 3.489465585 -7.803374016
-1.874726473 3.559860171 -7.908350231
-1.928560094 3.502427137 -7.972850102
-1.863096079 3.324332508 -7.999700645
-1.438732468 4.660011496 -7.948357334
-1.474277008 4.620030505 -7.938691352
-1.409470836 4.472707658 -7.960534984
-1.941580198 3.500350316 -7.947288527
-2.538210043 3.467678604 -7.384514292
-1.439077587 4.590234602 -7.963410368
-1.885702875 4.333545954 -7.268096384
-2.328360698 4.444739017 -7.219398892
-1.60280126 3.639889935 -7.963624707
-1.382504253 4.620543602 -7.955375238
-0.8306497547 3.039223487 -7.988799006
-1.016009561 3.131793487 -7.989180173
-1.032998275 3.029778316 -7.994159843
-1.310069528 4.385988278 -7.90973275
-1.808082216 4.186983475 -7.228281862
-1.968197737 4.388838757 -7.318980049
-1.397746996 4.534668834 -7.959783677
-1.472597343 4.551166637 -7.955089044
-1.506261673 4.491472554 -7.930538604
-1.502638176 4.581805934 -7.923564178
-1.803749706 4.238353146 -7.245717229
-1.817266266 4.286434336 -7.270165728
-1.810832479 4.254650554 -7.245245629
-1.695578788 3.53967208 -7.98401439
-1.824151581 3.371834152 -7.995294423
-1.749063839 3.45678968 -7.99048969
-1.510332467 3.530185161 -7.97783917
-1.745399311 3.339726751 -7.999256363
-1.886444646 3.299452176 -7.993080428
-1.869668736 3.305700178 -7.999183944
-1.393252104 3.550632989 -7.927812102
-1.433413409 3.466848019 -7.981927666
-1.469749665 3.542556486 -7.964831649
-1.857314789 3.400688081 -7.994126074
-1.813001964 3.38097816 -7.996432605
-1.815847702 3.398041785 -7.996358206
-1.858575065 3.3874491 -7.991522012
-1.912869315 3.342716099 -7.992120424
-1.798233786 3.388695957 -7.99630231
-1.523639897 3.322552063 -7.999473631
-1.871472566 3.381482222 -7.989611608
-1.869288627 3.395097932 -7.991523185
-1.881542439 3.391022348 -7.99047556
-1.868162379 3.407743222 -7.995039671
-1.877802171 3.401715212 -7.992766166
-1.649132264 3.464857583 -7.985575411
-1.888708815 3.401903502 -7.992897523
-1.667801381 3.409158513 -7.988705074
-1.801142871 3.375691075 -7.997083866
-1.879839269 3.337523037 -7.996392747
-1.673640534 3.21187276 -7.992418316
-1.668344913 3.222719167 -7.991504987
-1.662548954 3.325628801 -7.996011023
-1.667430785 3.434197041 -7.986743811
-1.689640324 3.42740147 -7.988094878
-1.790177316 3.343413661 -7.992836305
-1.844144011 3.334415384 -7.994926393
-1.843989373 3.31797877 -7.996558787
-1.559776799 3.410062396 -7.985727503
-1.559403894 3.458661004 -7.983115382
-1.518141791 3.433491964 -7.985081564
-1.630261108 3.350492901 -7.994645494
-1.633193419 3.391796891 -7.989301398
-1.681826794 3.331342534 -7.990682982
-1.696057864 3.350560886 -7.990745254
-1.737599234 3.31286195 -7.996045703
-1.719384392 3.318360145 -7.994269302
-1.733619465 3.329187745 -7.997698004
-2.511928533 3.426803605 -7.472949385
-2.53051181 3.43049242 -7.488781467
-2.515813361 3.421900445 -7.48953728
-1.749394688 3.324502338 -7.998063814
-2.48347216 3.460169166 -7.371697112
-2.470367916 3.45408612 -7.378050099
-2.43659152 3.45678606 -7.390674147
-1.494516611 3.331402679 -7.999247187
-1.507478651 3.309462555 -7.996916618
-1.484412317 3.326605975 -7.995171957
-1.483592018 3.301992233 -7.98782738
-1.715542548 3.287154515 -7.989788645
-1.642994095 3.423406071 -7.986888301
-1.564708887 3.368129938 -7.989362196
-1.580040332 3.36082776 -7.989691182
-1.578701023 3.378501544 -7.987844836
-1.482902235 3.485132788 -7.984106553
-1.468063246 3.450112223 -7.986972584
-1.796928516 4.046936217 -7.235731741
-1.825162108 4.062904272 -7.240656302
-1.810444034 4.042301822 -7.219478327
-1.545605577 3.629740036 -7.952080684
-1.458365836 3.505660373 -7.976860917
-1.529504984 3.499980093 -7.983472903
-1.491360003 3.462758493 -7.985914847
-1.762375293 3.730176839 -7.545362342
-1.466371692 3.653897517 -7.747077985
-1.530357786 3.484489888 -7.982943023
-1.517723651 3.47483275 -7.983839247
-1.565317298 3.507481278 -7.982934608
-1.480061292 3.427862176 -7.985649057
-1.649681446 3.322784647 -7.998323043
-1.597458122 3.478728597 -7.983770448
-1.59468588 3.370369142 -7.989005766
-1.527705419 3.382568737 -7.989360851
-1.580326624 3.345001661 -7.991469524
-1.481914419 3.374875277 -7.98656742
-1.463094825 3.395410223 -7.983846103
-1.445139466 3.423465748 -7.985426114
-1.528048343 3.283163506 -7.997078146
-1.602459737 3.427683402 -7.985875275
-1.642822974 3.308352805 -7.997327277
-1.622331543 3.332228484 -7.997023723
-1.610454426 3.303498001 -7.998208498
-1.693247065 3.304511929 -7.990854164
-1.683526608 3.291131079 -7.988684928
-1.835869561 3.159027195 -7.996146214
-1.731203687 3.28403511 -7.990108371
-1.687322302 3.319459597 -7.990812755
-1.69527388 3.334008424 -7.990094055
-1.702125113 3.318137827 -7.991555747
-1.725909854 3.300166355 -7.992974715
-1.708911896 3.329898932 -7.991786175
-1.76170557 3.335938117 -7.996752194
-1.753761381 3.309727933 -7.996184713
-1.666981731 3.29374123 -7.990313176
-1.70908552 3.302840119 -7.992036207
-1.699687563 3.289177691 -7.98858755
-1.783650774 3.266288218 -7.99335085
-1.690034891 3.275252599 -7.985871701
-1.776163511 3.33950147 -7.994096437
-1.706701494 3.273689387 -7.986762863
-1.721956432 3.272453225 -7.987521495
-1.781450233 3.302495905 -7.988733774
-1.766053629 3.274341531 -7.991133854
-1.792896419 3.314776673 -7.984329642
-1.806641028 3.311413451 -7.979903206
-1.798423746 3.297774087 -7.984365436
-2.093956986 3.444674404 -7.553428205
-2.075317003 3.443767471 -7.558422
-2.349173827 3.654526265 -7.28797633
-1.799985074 3.278673692 -7.993077208
-1.812952017 3.301813502 -7.981171199
-2.177983341 3.365790828 -7.744733881
-2.157730118 3.362795022 -7.749957627
-1.819520012 3.312921849 -7.983677564
-2.0869286 3.436907642 -7.572031325
-1.861979753 3.344763148 -7.993750844
-2.182881676 3.371363562 -7.72898207
-2.16428646 3.368645545 -7.733597167
-1.897128637 3.337430221 -7.994947584
-1.932049101 3.247853071 -7.984955989
-1.946699859 3.249982138 -7.989784421
-1.943596284 3.240523054 -7.990456203
-2.435201126 3.313352575 -7.803661239
-1.887165242 3.319947629 -7.997318781
-1.854551902 3.309005024 -7.99993108
-1.841904196 3.35275674 -7.992154994
-1.884933938 3.215250536 -7.994515862
-1.856165978 3.215433093 -7.996265003
-1.825341077 3.341777126 -7.992176809
-1.811130985 3.367338382 -7.996546044
-1.945204098 3.272049454 -7.992114327
-1.596080763 3.274876709 -7.994631384
-1.796787168 3.261842326 -7.995619711
-1.741485723 3.263580709 -7.984964805
-1.746779737 3.276881055 -7.988817822
-2.031122635 3.235423938 -8.001108363
-1.978643966 3.212362456 -8.00080248
-1.956995885 3.243350151 -7.996316819
-1.887258111 3.280546316 -7.986006888
-1.870966502 3.287993022 -7.993509159
-1.874100759 3.227485138 -7.992284395
-1.829429202 3.271539351 -7.994121718
-1.871774707 3.273379281 -7.988560252
-1.829646452 3.22286041 -7.994615266
-1.783109294 3.285550823 -7.991366488
-1.809161181 3.266182609 -7.99632172
-1.81622501 3.256509515 -7.994812393
-1.820375398 3.26667236 -7.995510943
-1.789114941 3.227533487 -7.990323583
-1.801679893 3.233607863 -7.991270729
-1.734164102 3.271217865 -7.98710633
-1.729948573 3.258166995 -7.98526947
-1.73241405 3.202375283 -7.985769788
-1.720891322 3.234881666 -7.988359953
-1.707677449 3.227949517 -7.988838868
-1.713511151 3.211001973 -7.988852431
-1.697035622 3.211647089 -7.989438453
-1.64503228 3.233150911 -7.988168322
-1.66061596 3.23493977 -7.98834872
-1.653915758 3.222108933 -7.991974497
-1.650924705 3.24693816 -7.985829539
-1.638393377 3.257589609 -7.98693919
-1.672351502 3.277712977 -7.986716381
-1.685501086 3.245763759 -7.985952469
-1.626554623 3.182668405 -7.989113682
-1.637914894 3.205481775 -7.990089074
-1.894521842 3.252503719 -7.982630294
-1.942712541 3.259104631 -7.988259741
-1.84421654 3.225950884 -7.994894944
-1.873020415 3.20741314 -7.996521335
-1.859274711 3.193212269 -7.997657562
-1.84953452 3.159571538 -7.999245866
-1.899908908 3.293849937 -7.985909326
-1.769333802 3.140715875 -7.982888331
-1.785534673 3.186188821 -7.985740262
-1.798027143 3.181251327 -7.988895303
-1.793655494 3.198365447 -7.990034398
-1.823699132 3.185459059 -7.999743602
-1.881886281 3.173396244 -8.003020695
-1.936965399 3.219129941 -7.995251027
-1.951030602 3.218906705 -8.000961645
-1.84147154 3.214746681 -7.997997973
-1.776889091 3.1975189 -7.986368993
-1.759680583 3.19445546 -7.9833413
-1.72189666 3.247850846 -7.986913132
-1.742874304 3.250043004 -7.984346353
-1.732173424 3.241380819 -7.986167671
-1.829330719 3.171597024 -7.997115226
-1.783245189 3.213441033 -7.98885556
-1.813133172 3.175100581 -7.993958466
-1.808947676 3.19045778 -7.995108226
-1.865752251 3.161691119 -8.002494365
-1.843881939 3.201702054 -8.000025072
-1.830258876 3.149009549 -7.994593042
-1.840992677 3.184151257 -7.999808882
-1.820342826 3.199047182 -7.999386253
-1.831980335 3.195326493 -8.001920298
-1.83135524 3.207443729 -7.999647434
-1.882264639 3.154610279 -8.004434334
-1.978641412 3.19869667 -7.998599385
-1.955538667 3.208903106 -8.002417079
-1.9436946 3.171551521 -7.996181479
-1.923154835 3.187881505 -7.99553264
-1.907294373 3.183238066 -7.998870174
-1.943416768 3.206936333 -7.999008418
-1.961039036 3.229363103 -8.001750763
-1.902438024 3.281760102 -7.981625147
-1.947044756 3.230598314 -7.99600413
-2.014838009 3.184168871 -7.994079977
-2.006797993 3.288527767 -8.001462421
-1.95562202 3.174032269 -7.997746202
-1.92109453 3.221246326 -7.989775087
-1.922606922 3.234818501 -7.985014296
-1.934022672 3.232070526 -7.989467737
-1.906545918 3.220027566 -7.990502742
-1.894028709 3.227107414 -7.989540076
-1.909944851 3.231197065 -7.985976467
-1.910826239 3.208705971 -7.992991809
-1.91355297 3.19644295 -7.994643105
-1.897201603 3.211955967 -7.994068819
-1.926514979 3.204734598 -7.994754127
-1.931502761 3.266204356 -7.985223124
-1.937846119 3.192982605 -7.997003745
-1.905371374 3.252380755 -7.981194376
-1.900616776 3.241461786 -7.983826966
-2.00338616 3.262111079 -8.002824784
-1.900400101 3.26614803 -7.981441819
-1.914723857 3.244061941 -7.982314576
-1.933772961 3.283297337 -7.988658337
-1.916662634 3.277174492 -7.982525339
-2.195568286 3.384270212 -7.692744661
-2.197707441 3.379502824 -7.707282591
-2.221904151 3.384283676 -7.708603965
-2.201101343 3.369521158 -7.740815701
-1.942688598 3.32374467 -7.991922092
-1.951751152 3.312085795 -7.994551081
-1.921886475 3.312875406 -7.989990842
-1.953316113 3.301065012 -7.996716582
-2.180648554 3.337103215 -7.829829519
-2.178654192 3.311207158 -7.895100368
-2.188445842 3.308333317 -7.899894397
-2.187674145 3.303623987 -7.913883225
-2.173336307 3.3496941 -7.779757083
-2.181900477 3.354202063 -7.768858687
-2.387169834 3.314302921 -7.807893445
-2.432403141 3.318923444 -7.790314333
-2.45234001 3.318048561 -7.781686784
-2.444610768 3.316332979 -7.79311134
-2.418020867 3.317113812 -7.796134151
-2.178507083 3.322922071 -7.861828677
-2.432045543 3.328116318 -7.765266717
-2.40652195 3.326547301 -7.779205802
-2.381952019 3.3433668 -7.753544216
-2.38507462 3.339447133 -7.764768022
-2.373291067 3.33971533 -7.763846414
-2.393704128 3.33437234 -7.771328674
-2.416306021 3.330512353 -7.764412284
-2.403900476 3.333889287 -7.765190798
-2.194572689 3.327113705 -7.858847126
-2.476050522 3.329528697 -7.74563633
-2.374139711 3.317605775 -7.80434629
-2.422015511 3.346654526 -7.727546031
-2.506701119 3.322514404 -7.732837227
-2.192580304 3.342790053 -7.813337348
-2.186560399 3.332399496 -7.845935523
-2.261143763 3.329107978 -7.836422523
-2.220363242 3.341773294 -7.83056185
-2.361295129 3.294109911 -7.858575817
-2.526037621 3.339475906 -7.676946971
-2.373815953 3.32808092 -7.784813901
-2.358666975 3.328485326 -7.785114869
-2.159495503 3.340660446 -7.813913015
-2.163365859 3.335699926 -7.827925267
-2.169662493 3.373215002 -7.718109012
-2.022272736 3.214452336 -7.998482099
-2.17784799 3.309769225 -7.908202799
-2.177110732 3.307402083 -7.923196811
-2.54278409 3.326467009 -7.715032844
-2.578622096 3.371938945 -7.696307329
-2.473855828 3.314693382 -7.770919452
-2.518523671 3.311817928 -7.757943877
-2.503473381 3.315668264 -7.74954647
-2.572534957 3.331150289 -7.704489578
-2.569707298 3.3079648 -7.756735735
-2.489144968 3.32015132 -7.749935664
-2.436874858 3.348189083 -7.719006217
-2.575261436 3.358468932 -7.689822525
-2.583663816 3.359877828 -7.698946293
-2.454947532 3.328349438 -7.76001626
-2.442190953 3.332276152 -7.75412416
-2.575197604 3.31215532 -7.743349933
-2.591420295 3.323174361 -7.726613635
-2.52035806 3.316001282 -7.743413388
-2.460314752 3.320697816 -7.770620242
-2.46757435 3.325084129 -7.759038218
-2.580501778 3.316880574 -7.728441632
-2.358891223 3.338891982 -7.763167072
-2.352030749 3.343501436 -7.751383983
-2.6258601 3.35243722 -7.727679364
-2.502551953 3.416040415 -7.497557089
-2.53868586 3.433995282 -7.50260135
-2.456961677 3.335149257 -7.746218405
-2.533709112 3.332744685 -7.702797946
-2.446862585 3.325237988 -7.76857727
-2.438865736 3.321962111 -7.779566924
-2.559099907 3.380337198 -7.677996807
-2.561496634 3.397079333 -7.684262922
-2.603606214 3.356361367 -7.714909062
-2.407066741 3.345426673 -7.736275927
-2.552710196 3.33357401 -7.698819618
-2.551494529 3.349443735 -7.667810943
-2.540033106 3.342043212 -7.670891598
-2.526830278 3.342900902 -7.661032726
-2.540242802 3.34861726 -7.656981824
-2.512532227 3.344804834 -7.652281
-2.51252151 3.341295779 -7.669316265
-2.566977844 3.344407124 -7.688225548
-2.246077947 3.360053707 -7.767331928
-2.539980924 3.358169318 -7.646754233
-2.547878891 3.360198221 -7.659416458
-2.478404792 3.336298776 -7.729701795
-2.577999363 3.397467064 -7.702278469
-2.511551489 3.32932498 -7.719290445
-2.569528567 3.400606098 -7.694766953
-2.594915988 3.33299515 -7.718790851
-2.491145026 3.326166934 -7.738076278
-2.544784354 3.369337664 -7.652588364
-2.394506155 3.339756957 -7.758809944
-2.406700191 3.338382626 -7.752658681
-2.560347504 3.350503242 -7.676741204
-2.552548764 3.341666842 -7.68055846
-2.566717767 3.357365631 -7.681258974
-2.51771585 3.333698831 -7.705876793
-2.508773638 3.337828361 -7.694573777
-2.53835728 3.337575856 -7.686956694
-2.537864277 3.372011307 -7.642579361
-2.523242464 3.337080121 -7.691918038
-2.568033041 3.369830154 -7.684722367
-2.545088491 3.383667296 -7.654464228
-2.551187928 3.374537854 -7.663691347
-2.493886174 3.333325024 -7.721827595
-2.489451336 3.338595058 -7.708224169
-1.799149585 3.135451839 -7.988338047
-1.784812289 3.136302752 -7.984886646
-2.140808503 3.346367045 -7.800687184
-2.140191774 3.348805305 -7.787968537
-2.533039065 3.372904361 -7.627743922
-2.280062027 3.333574431 -7.804434062
-2.423541388 3.336565208 -7.747797632
-2.494211159 3.339582947 -7.695938839
-2.501439402 3.340887267 -7.681495051
-2.552643849 3.391553162 -7.6697792
-2.556684105 3.41679568 -7.645047273
-2.502442173 3.33590525 -7.708058463
-2.188812632 3.348577214 -7.78271301
-2.200482363 3.340946342 -7.831848425
-2.21403349 3.346022216 -7.809695157
-2.39134854 3.351341743 -7.728872978
-2.35144431 3.333980118 -7.774443432
-2.168926229 3.343047609 -7.801311965
-2.185344911 3.375240673 -7.713760349
-2.344616903 3.338761403 -7.763937276
-2.330977458 3.33909357 -7.767341264
-2.393399665 3.345050547 -7.744666696
-2.320672718 3.345987927 -7.75527649
-2.168132797 3.354027134 -7.770317616
-2.233560213 3.344023956 -7.814224331
-2.380399673 3.33476193 -7.774344526
-2.316112106 3.366613679 -7.710914407
-2.154697772 3.344589843 -7.801408008
-2.365952902 3.334259073 -7.774558378
-2.225198829 3.321757564 -7.870146978
-2.222809198 3.374977925 -7.739241765
-2.257562427 3.338768509 -7.803659945
-2.16672653 3.32970269 -7.847390296
-2.174900152 3.340030901 -7.814020537
-2.514354525 3.339221682 -7.682826223
-2.115460615 3.358591731 -7.851900283
-2.176050177 3.345801761 -7.790362028
-2.232106541 3.348640653 -7.794875632
-2.150909169 3.348354768 -7.789407538
-2.200632377 3.346508256 -7.795198878
-2.189448477 3.360874474 -7.756149516
-2.204648576 3.361496372 -7.757059928
-2.183956634 3.343829183 -7.7993081
-2.248479972 3.350386007 -7.782653612
-2.144820102 3.342511164 -7.814792193
-2.239226373 3.37541057 -7.739677265
-2.245562815 3.368143618 -7.75278419
-2.217898398 3.366550025 -7.752938615
-2.231340993 3.37095406 -7.749790222
-2.150485293 3.337859156 -7.825318332
-2.473558384 3.350459719 -7.670852296
-2.204602078 3.350286584 -7.77995992
-2.27574145 3.348916856 -7.768639673
-2.129581853 3.36691092 -7.743337787
-2.253197067 3.380002656 -7.715249131
-2.171600421 3.359218017 -7.759185378
-2.15333142 3.356583981 -7.767604359
-2.256570568 3.362051386 -7.758859842
-2.259365893 3.365474614 -7.749270063
-2.404509036 3.3550518 -7.716705979
-2.049614895 3.456628191 -7.620450913
-1.820279149 4.264528329 -7.234872596
-2.344368999 3.349334334 -7.740040915
-2.267679193 3.338646128 -7.794664543
-2.256628924 3.343026295 -7.791566367
-2.248300501 3.377053044 -7.729386911
-2.269695788 3.364935283 -7.739405712
-2.253985467 3.371237455 -7.7397375
-2.261970205 3.372735522 -7.727086712
-2.530428714 3.382476255 -7.584209942
-2.275730208 3.368122436 -7.726231298
-2.527795144 3.348440972 -7.643970692
-1.763128094 3.156388178 -7.979168167
-1.744173816 3.162726617 -7.982211989
-1.759793479 3.174053644 -7.979782709
-2.473936777 3.43349172 -7.432202285
-2.467952377 3.436569119 -7.41616206
-2.49311161 3.376436378 -7.577233988
-2.4609626 3.384239108 -7.590709426
-2.498849471 3.366522848 -7.588540176
-2.234136618 3.380974807 -7.723385268
-2.265163654 3.345679062 -7.781299714
-2.260538329 3.354475214 -7.768813648
-2.538816926 3.390120905 -7.611655808
-2.564426727 3.430215847 -7.592845324
-2.529198874 3.385791918 -7.572669414
-2.162538092 3.426453221 -7.597176213
-2.26989631 3.358013442 -7.755080107
-2.532970108 3.358746898 -7.633121305
-2.52584747 3.371008392 -7.59246095
-2.521021675 3.35188396 -7.628741773
-2.504639307 3.359068197 -7.602568408
-2.52070165 3.360376969 -7.603366769
-2.284664277 3.352108768 -7.756168061
-2.29267038 3.355179843 -7.74524699
-2.488183537 3.427241849 -7.457191806
-2.367180998 3.343771228 -7.751166265
-2.08762004 3.407575362 -7.764026141
-2.50402502 3.442761961 -7.419870543
-2.247431771 3.467152426 -7.467689963
-1.939743198 4.298156365 -7.218208995
-2.558347614 3.463639594 -7.43322977
-2.524728937 3.409644213 -7.520481872
-2.514514088 3.413502069 -7.506706976
-1.860954246 3.879803021 -7.218786739
-2.093789797 3.41508541 -7.720530192
-2.082956381 3.42213646 -7.67922172
-1.727561206 3.160620119 -7.986695185
-1.734608667 3.144477772 -7.988281836
-2.117258166 3.53468742 -7.376845489
-2.124103127 3.404337439 -7.660137554
-2.124966871 3.411713731 -7.643874247
-2.410377543 3.411251974 -7.554547361
-2.433611686 3.426116829 -7.496394663
-1.958380285 3.674039931 -7.216294178
-2.109878659 3.459159791 -7.510778064
-2.160491747 3.481426364 -7.452265645
-1.728037268 3.877042431 -7.24969168
-1.779224534 3.864902907 -7.21460587
-2.073125989 3.455477649 -7.527323156
-2.392441004 3.485403327 -7.379911386
-1.50515757 3.23601361 -7.992553144
-1.477531622 3.229266563 -7.994254876
-1.477160367 3.255732854 -7.989640526
-1.990992889 3.505087799 -7.618518668
-1.607659218 3.164040342 -7.993151413
-2.115199015 3.435361028 -7.587032525
-2.102662619 3.441033717 -7.56534725
-2.54410835 3.527532632 -7.318258455
-2.089579553 3.42405372 -7.620407414
-1.788540538 4.153661458 -7.243355056
-1.782587224 4.148034773 -7.26058806
-2.478036765 3.541683099 -7.311053982
-2.493895902 3.559122321 -7.301631911
-2.507366453 3.537916233 -7.307678135
-2.044662976 4.025384992 -7.203914667
-2.466617515 3.440007373 -7.401839066
-1.788751061 4.173905875 -7.25949708
-1.827939345 4.242881785 -7.226872727
-1.835099946 4.200575058 -7.217438826
-1.863560014 4.119438351 -7.218162169
-1.843486112 4.15618439 -7.213831823
-1.811443067 3.840768713 -7.22133608
-1.825975526 3.837388918 -7.227415225
-2.17923519 3.395620353 -7.665578312
-2.147961335 3.397078287 -7.666833632
-2.187546609 3.447957215 -7.5274068
-1.849225483 4.014940315 -7.214485335
-1.775589809 4.013748583 -7.212827372
-2.585519892 3.486559531 -7.436047262
-2.577788638 3.480660994 -7.453413298
-2.578401878 3.478226577 -7.42607933
-1.82760718 4.293761665 -7.247789255
-1.81246244 4.285820465 -7.24709053
-1.809993167 4.275069513 -7.244222224
-1.81667933 4.279734085 -7.239097175
-1.851209742 4.16680503 -7.211958885
-1.761760164 4.019201335 -7.223434022
-1.75493852 4.027650367 -7.238922897
-1.802103154 4.222189122 -7.245308534
-1.817613011 4.173318901 -7.219801639
-1.802741244 4.145613227 -7.230313033
-1.80080716 4.202052149 -7.240482409
-1.82409806 4.186750493 -7.218750346
-1.789069138 4.132891 -7.244434863
-1.803472497 4.120458374 -7.234356649
-1.832153006 3.828347082 -7.228090724
-1.781196475 4.091627589 -7.283148106
-2.192345872 3.895171553 -7.19448998
-2.284549741 3.84547682 -7.201217517
-1.794685533 4.165571813 -7.238365318
-1.789799264 3.844390059 -7.217714331
-1.292399208 3.83940976 -7.652464967
-1.716421208 3.982910723 -7.431186306
-1.664646411 3.911236829 -7.284411688
-1.797198819 4.184699177 -7.241648459
-1.795791136 4.208878004 -7.262797101
-1.773351976 4.039172463 -7.228610732
-1.829226625 3.805822434 -7.21415392
-1.878118764 3.747470639 -7.202897704
-1.875737832 3.731670189 -7.198119707
-1.973704687 3.612070563 -7.260300164
-1.974696669 3.595565502 -7.332058426
-1.848386397 3.752698903 -7.208910113
-2.555302716 3.456121642 -7.48147466
-1.371482878 3.646115007 -7.721801543
-1.637488185 3.849524158 -7.347488438
-1.78252061 4.147926253 -7.316453457
-1.753969556 4.025160535 -7.292241774
-1.793590232 4.019460318 -7.210761805
-1.872585538 3.807950661 -7.222916024
-2.4859807 3.437969264 -7.419311947
-1.948013311 3.641806686 -7.212991555
-2.301253814 3.456655795 -7.470712049
-1.824680688 3.77555774 -7.22004836
-1.903247003 3.697579574 -7.198696531
-1.827772086 3.784911042 -7.208246454
-1.860897706 3.765083779 -7.204497796
-2.137928923 3.875623318 -7.195957322
-2.072742547 3.844154172 -7.209047068
-1.972853889 3.739522756 -7.21874297
-1.866584661 3.721795993 -7.207108173
-2.480607177 3.421317294 -7.481880639
-1.897497869 3.73465469 -7.204454218
-2.555160882 3.42613223 -7.538182376
-2.53580679 3.396474759 -7.560250532
-1.93456051 3.639717621 -7.222970785
-2.21462231 3.721649557 -7.243468846
-2.188483615 3.834460662 -7.19853889
-1.901252913 3.678059022 -7.205466047
-1.92400353 3.657008544 -7.218926819
-1.930517813 3.703272853 -7.208997962
-1.819587443 3.158670333 -7.991980524
-1.897148192 3.68747567 -7.197145044
-1.889673145 3.665406825 -7.253890037
-1.932818057 3.624338489 -7.26446877
-1.910342019 3.686401662 -7.202314017
-2.246362863 3.431114383 -7.566196763
-2.493277852 3.443102864 -7.406283798
-2.512789531 3.399754331 -7.530982368
-2.501409108 3.398139065 -7.53541861
-1.779142708 3.150370463 -7.979912356
-1.791987157 3.145565501 -7.982510137
-2.479330648 3.414117104 -7.51161538
-2.502471459 3.403999954 -7.524441696
-2.568039227 3.470340063 -7.426233207
-2.526644328 3.35978632 -7.618569009
-2.571392544 3.473634527 -7.438203935
-2.478222087 3.418230504 -7.496940645
-2.519473975 3.380697013 -7.560184705
-2.501389283 3.380432484 -7.563394125
-2.464534837 3.410273019 -7.531260045
-2.491689669 3.40377307 -7.53139073
-2.511901464 3.406344915 -7.518582247
-2.527853264 3.396176405 -7.540556724
-1.790255921 3.158150443 -7.981420996
-2.466639222 3.398355921 -7.559075518
-2.530251953 3.374390336 -7.610189788
-2.120754362 3.374681439 -7.739344628
-2.11613354 3.368489475 -7.788267582
-1.744454931 3.182617405 -7.982230083
-2.488929284 3.384735202 -7.568459692
-2.490146899 3.358515487 -7.622696722
-2.135790747 3.354012497 -7.778500896
-2.52226437 3.372369412 -7.577250284
-2.515060749 3.362102815 -7.587747067
-2.508548801 3.371142632 -7.574864271
-1.75312516 3.144802665 -7.983873101
-1.820152353 3.143210172 -7.992572256
-2.506825862 3.389478681 -7.546434073
-2.491961912 3.396871089 -7.543669868
-2.491365217 3.389825363 -7.556684176
-1.805153501 3.14876602 -7.986672834
-1.787341238 3.17312205 -7.982866097
-1.775419441 3.165712302 -7.978935645
-1.681869085 3.219439619 -7.990102922
-1.734411422 3.125512754 -7.992898896
-1.761103168 3.132290855 -7.987395142
-1.670975575 3.200367816 -7.992772904
-1.668388531 3.188829019 -7.993078004
-1.698825995 3.241474711 -7.987164448
-1.691373379 3.23025811 -7.988192125
-1.802178869 3.165738254 -7.986735531
-1.773800969 3.181783938 -7.981966573
-1.707824949 3.196172563 -7.988715379
-1.718171957 3.184630399 -7.987363073
-2.181269724 3.382935791 -7.690940916
-2.187369362 3.378821809 -7.701768437
-2.174801007 3.377296684 -7.70368985
-2.134800535 3.361128277 -7.759215481
-2.151825053 3.371808467 -7.722190427
-1.655323147 3.28124212 -7.989049125
-2.118387008 3.382345069 -7.723311105
-2.165476546 3.382726475 -7.691994248
-2.158246783 3.377065382 -7.706667467
-1.603735795 3.244499814 -7.988435202
-1.591316375 3.258299821 -7.992061346
-2.13017254 3.39793608 -7.670273102
-2.127493071 3.385328099 -7.700596159
-2.11162567 3.399290333 -7.673891055
-2.052779574 3.450971179 -7.675527617
-2.138158542 3.391130585 -7.682874039
-1.400189061 3.213328138 -7.994419715
-1.432258111 3.258893641 -7.989855607
-1.464088593 3.199077592 -7.996091771
-1.593249559 3.104896338 -7.988286243
-1.344140528 3.19081929 -7.987533647
-1.570799134 3.197011327 -7.993158473
-1.663601611 3.166424284 -7.995091885
-1.64958783 3.186140343 -7.99336081
-1.518249227 3.112645509 -7.995304891
-1.526144739 3.125603443 -7.994397379
-1.455937353 3.079669427 -7.993967573
-1.518997284 3.169228367 -8.000101453
-1.537213615 3.189786698 -7.998920206
-1.464703976 3.154079946 -7.990662793
-1.554174231 3.282401145 -8.000705355
-1.530368698 3.267632382 -7.996369737
-1.638081647 3.218811565 -7.989429402
-1.648935631 3.208609836 -7.992973224
-1.657773849 3.196137121 -7.994075699
-1.66241752 3.210745793 -7.994090939
-1.569839363 3.3384723 -7.99228412
-1.540099206 3.206812772 -7.996376228
-1.579305957 3.181132317 -7.99455062
-1.571714336 3.166468282 -7.995641518
-1.506853243 3.328367566 -8.000146914
-1.693366482 3.192677851 -7.989692954
-1.679653623 3.189625197 -7.991063946
-1.466922821 3.269879676 -7.986525387
-1.459879702 3.256690906 -7.989518154
-1.58777514 3.194989745 -7.991917498
-1.579856262 3.100994714 -7.989613052
-1.570918634 3.108328684 -7.991659252
-1.714915601 3.25932138 -7.98641614
-1.585198685 3.169477253 -7.995743671
-1.683108204 3.123603227 -7.995713151
-1.682958744 3.204352216 -7.990727652
-1.710569116 3.244954915 -7.987610905
-1.673230445 3.177220094 -7.993337034
-1.688776961 3.175000036 -7.991667761
-1.594241106 3.164438642 -7.995709395
-1.562643186 3.242067904 -7.995240046
-1.549029872 3.23217059 -7.995457926
-1.608962658 3.150436243 -7.992622164
-1.616712531 3.140616031 -7.991664442
-1.54961247 3.116405772 -7.993957368
-1.586741969 3.14424413 -7.994414565
-1.584545593 3.1579613 -7.995864061
-1.715111754 3.150970694 -7.990924806
-1.678511268 3.163141699 -7.995015788
-1.564904063 3.118689388 -7.993171206
-1.558746485 3.106747675 -7.993551557
-1.176852756 3.050388852 -7.991900852
-1.669390318 3.131067035 -7.996251836
-1.567109739 3.097354863 -7.992486244
-1.597411594 3.153435428 -7.994489803
-1.489502507 3.16076948 -7.996127394
-1.292607973 3.114945447 -7.995538777
-1.227548199 3.040916942 -7.988855194
-1.51148013 3.099464908 -7.996911746
-1.505863393 3.124808169 -7.994264094
-1.202261612 3.028037462 -7.988945434
-1.283922278 3.099748732 -7.995997594
-1.267220635 3.099437243 -7.993812829
-1.341097586 3.073033457 -7.986428504
-1.293772251 3.056521657 -7.990771135
-1.167342733 3.060464096 -7.993784043
-1.175139067 3.075612107 -7.993673713
-1.157476939 3.072611404 -7.994143302
-1.284232554 3.086214648 -7.993846141
-1.310241277 3.096008006 -7.994454318
-0.8518007236 2.976792388 -7.988430692
-0.8021449914 2.998559511 -7.986146331
-0.7653591908 3.015889062 -7.981959412
-1.245828316 3.394721611 -7.985087915
-1.239419538 3.450102727 -7.942429137
-0.643193458 3.020330659 -7.971902304
-1.239207873 3.130629227 -7.990016542
-0.707625507 2.996075609 -7.974345738
-1.196707942 3.075543389 -7.991340389
-1.326922221 3.078639282 -7.988937136
-1.416452511 3.075953487 -7.997535735
-1.432694211 3.08392512 -7.996684346
-1.352517631 3.082811658 -7.985991471
-1.338730298 3.086729422 -7.988635064
-1.414866903 3.123239298 -7.997211386
-1.438023357 3.099706336 -7.99534606
-1.429495891 3.114552495 -7.995315511
-1.341710865 3.140256807 -7.982747923
-1.353852226 3.144552523 -7.985938307
-1.344593085 3.151682061 -7.98236728
-1.519097186 3.243360974 -7.993885736
-1.532384279 3.252571194 -7.996151266
-1.412801013 3.107596748 -7.997265247
-1.348610248 3.09392235 -7.9880786
-1.398630839 3.175995763 -7.995668047
-1.410919638 3.152985045 -7.996979341
-1.308467913 3.112102868 -7.994193301
-1.333532841 3.178707674 -7.98265239
-1.325521675 3.092026435 -7.991836686
-1.337717503 3.099771877 -7.991104135
-1.351846328 3.106683095 -7.988935778
-1.336859636 3.113470959 -7.989544973
-1.40356428 3.129422016 -7.998334312
-1.298218336 3.251889715 -7.989232969
-1.427478108 3.133079727 -7.994459667
-1.312084418 3.162262781 -7.975886189
-1.32771432 3.138244297 -7.98106697
-1.500405023 3.359405992 -7.993393347
-1.506105715 3.208340575 -7.997103625
-1.364525672 3.262489072 -7.992139219
-1.390691803 3.126384277 -7.995726216
-1.33794922 3.127062252 -7.985519663
-1.323613165 3.106184302 -7.992637443
-1.396750494 3.143135946 -7.998204299
-1.382826117 3.154997714 -7.995932891
-1.348554429 3.174440662 -7.985984133
-1.359264709 3.18435758 -7.990240004
-1.361449069 3.094061556 -7.986733339
-1.138247675 3.168249634 -7.990140165
-1.136399165 3.135817822 -7.991356124
-1.360147143 3.119992442 -7.988672485
-1.347685858 3.119304752 -7.988367119
-1.401706391 3.116367804 -7.996777064
-1.372237812 3.177388786 -7.992797475
-1.375414573 3.122539326 -7.990663788
-1.298352732 3.103179588 -7.996927361
-0.7149949894 3.054610429 -7.975306452
-0.7015047472 3.086593755 -7.973992217
-0.77487282 3.061488815 -7.986124699
-0.7550762708 3.106652825 -7.98236482
-0.8216420891 3.104442994 -7.987989293
-1.173419177 3.150734528 -7.990643959
-1.064478341 3.175210312 -7.98811114
-1.095273327 3.151311878 -7.990578813
-1.109182626 3.194334319 -7.989000757
-1.159653057 3.400704797 -7.925833912
-1.149119072 3.330489547 -7.968643981
-1.197933478 3.350872953 -7.977019921
-1.092111977 3.226092855 -7.989143451
-1.126340715 3.234672742 -7.989033839
-1.063976358 3.19876997 -7.987704529
-1.105609082 3.265400214 -7.986590682
-1.11418018 3.283715205 -7.979407569
-1.429000811 3.305827728 -7.983435568
-1.352760881 3.159231027 -7.985819608
-1.577439638 3.270827973 -7.997114934
-1.432132895 3.180616549 -7.995167223
-1.425968018 3.169436656 -7.994230137
-1.517929687 3.258277562 -7.993543196
-1.504213995 3.264844048 -7.991247431
-1.516072155 3.273276537 -7.993393014
-1.505788338 3.222158115 -7.993900027
-1.597104881 3.301064184 -7.997269318
-1.60331139 3.289971446 -7.996919586
-1.585300302 3.290553827 -7.997050234
-1.613006675 3.277878368 -7.993983847
-1.476565483 3.333328506 -7.99243198
-1.486189526 3.339126133 -7.996353561
-1.668517855 3.248052764 -7.985328477
-1.6762328 3.233917122 -7.987898289
-1.678936964 3.261488745 -7.984689831
-1.698079555 3.257604176 -7.985643284
-1.1676743 3.210609712 -7.988031257
-1.634916575 3.294850547 -7.995335472
-1.520394684 3.22878643 -7.993786467
-1.451673502 3.293361007 -7.982241231
-1.564038532 3.224457744 -7.992968537
-1.580101618 3.220489921 -7.990715298
-1.561080143 3.260020765 -7.998129472
-1.581079706 3.207293514 -7.991008263
-1.491244908 3.273981259 -7.988372312
-1.497714115 3.285177539 -7.989632684
-1.504102899 3.277156185 -7.990786845
-1.540216143 3.315961172 -7.998714793
-1.555117891 3.295706032 -7.999606521
-1.480201394 3.266860572 -7.987780627
-1.303979713 3.415078043 -7.983934206
-1.307967219 3.469913904 -7.963736763
-1.358620338 3.4332173 -7.980494584
-1.472977338 3.294166606 -7.983780844
-1.486162321 3.288528044 -7.986773901
-1.589495225 3.322444058 -7.994311677
-1.543451672 3.302441463 -7.999587344
-1.527650445 3.301769146 -7.998844519
-1.553435217 3.323989544 -7.995837562
-1.56775256 3.286212757 -7.999234704
-1.432665635 3.361631803 -7.980661942
-1.313655288 3.529911813 -7.895533538
-1.501036477 3.344399304 -7.998304239
-1.423371946 3.389964678 -7.984755288
-1.363972133 3.358282912 -7.987513902
-1.460313978 3.301114123 -7.982171678
-1.476221089 3.279406984 -7.985283722
-1.495225653 3.3989978 -7.985632975
-1.376179832 3.390354149 -7.986902881
-1.151110705 3.24961655 -7.982925951
-1.405457266 3.415675621 -7.986522373
-1.316146623 3.391046349 -7.983062013
-1.345654923 3.383946021 -7.985692049
-1.248044404 3.360886973 -7.989860454
-1.300062729 3.395964971 -7.984688794
-1.554004333 3.309499052 -7.997515459
-1.511015184 3.289556817 -7.993784139
-1.541570713 3.290298634 -7.999963745
-1.46224354 3.285672779 -7.983071
-0.7662978277 3.203076739 -7.972963259
-1.282617046 3.393958608 -7.989046647
-1.279484328 3.354396392 -7.988874673
-1.288818664 3.381493863 -7.987243088
-1.194915437 3.291044193 -7.984161796
-1.177166085 3.258749982 -7.983666757
-1.302528761 3.381410342 -7.984054032
-1.318777199 3.354245257 -7.987902142
-1.320795254 3.266154208 -7.991724999
-1.390906772 3.314148293 -7.987199668
-0.992876405 3.223951628 -7.981215088
-1.059801053 3.224187059 -7.986122409
-1.242356708 3.317084026 -7.989135116
-1.288167068 3.422360156 -7.984723244
-1.224785135 3.254481617 -7.987407339
-1.132752347 3.263444183 -7.982271899
-1.124804109 3.302035571 -7.97241529
-1.157618889 3.28721197 -7.979973977
-1.057406721 3.260555043 -7.981983593
-1.063653203 3.31787617 -7.966165289
-0.9762571611 3.370492258 -7.926569061
-1.783412417 4.149765494 -7.460761722
-3.408860317 4.455851419 -7.968275861
-2.106378037 2.917230574 -8.00324022
-2.114017176 2.936613139 -8.000994294
-2.758943043 3.975961703 -7.153760346
-2.725076019 3.975125105 -7.157755941
-2.716474782 4.007753411 -7.158734378
-2.866715216 3.776930683 -7.357944693
-2.876601548 3.808493401 -7.367934732
-2.521889573 4.405827791 -7.185103297
-2.593969443 4.456433906 -7.181355438
-2.567240271 4.403129644 -7.184958871
-1.293034603 4.881547474 -7.940760651
-1.330232994 4.878559606 -7.938414953
-1.299387313 4.846393841 -7.941695485
-3.597552237 4.16325958 -7.97235411
-3.574754452 4.154752078 -7.974014499
-3.574756503 4.170005766 -7.972162171
-2.788766144 4.048436825 -7.147893626
-2.801757086 4.066499986 -7.152233517
-3.480363127 4.093009035 -7.975682705
-3.463550512 4.094839232 -7.976073097
-3.480193407 4.111905003 -7.976224326
-3.526090273 3.984421656 -7.97810371
-3.528657792 4.013635768 -7.977377132
-3.566479401 4.000634841 -7.97732888
-3.446795481 3.975215039 -7.979681359
-3.460773351 4.000379509 -7.978701836
-3.483750897 3.976378687 -7.977993717
-3.329566346 3.895538621 -7.98354629
-3.35363216 3.910429518 -7.982843088
-3.357967646 3.875617403 -7.982824833
-3.179250503 3.782523662 -7.984918264
-3.161372629 3.788416714 -7.985277463
-3.043953094 3.744318632 -7.985008344
-3.044721632 3.767569776 -7.984516221
-3.254755969 3.580252696 -7.990819852
-3.473896304 3.743632908 -7.987208114
-3.3903518 3.606029928 -7.991922041
-2.942252696 3.567758341 -7.788503672
-2.94555737 3.590807769 -7.785146068
-3.089950296 4.169817211 -7.943118707
-3.085893018 4.153412592 -7.929589362
-3.078222186 4.167902499 -7.922441739
-2.879996973 3.792718315 -7.388980301
-2.867000245 3.763112022 -7.368122967
-2.872052854 3.781207302 -7.372764324
-2.980193678 4.05727551 -7.5958751
-2.958277815 3.995316076 -7.565600636
-2.954133908 4.009766554 -7.535271682
-3.000239337 3.802924885 -7.865575537
-3.010777051 3.842605266 -7.879696535
-3.010391363 3.820239159 -7.897590693
-3.142217744 3.841362543 -7.983300175
-3.147622116 3.856855233 -7.981608731
-3.160813856 3.853107476 -7.982978409
-2.815154136 3.624936598 -7.678637234
-2.810539023 3.635006722 -7.668711089
-2.844756178 3.617282903 -7.661364438
-2.841116567 3.631042129 -7.648859618
-2.711815067 3.603786443 -7.688198171
-2.725074109 3.608397923 -7.698913108
-2.717333092 3.603829244 -7.705276484
-2.795471315 3.816049809 -7.139661345
-2.781474088 3.814142327 -7.142578157
-2.782102483 3.82587933 -7.137961024
-2.594034824 3.491544255 -7.384202255
-2.571320216 3.484312405 -7.381381741
-2.587729633 3.492871454 -7.366087447
-2.607432463 3.501030908 -7.404292379
-2.594607741 3.49117547 -7.410164614
-2.599093109 3.4930427 -7.397247293
-2.751424397 3.348395683 -7.878739512
-2.763764068 3.346300142 -7.893737525
-2.74083267 3.336320523 -7.891474264
-2.674837339 3.558046593 -7.366636849
-2.677013731 3.568107155 -7.345774251
-2.697058423 3.582666427 -7.354535225
-1.802047037 2.725624997 -8.013150917
-1.270690326 2.466024216 -8.008778093
-1.258758948 2.454454829 -8.007856447
-1.300458572 2.488098525 -8.010580546
-1.363922397 2.624409113 -8.011824453
-1.068713635 2.522083647 -7.997518297
-1.077882379 2.571206201 -8.000307799
-1.067741646 2.588637446 -8.002947696
-0.7639738451 2.79473015 -7.986209324
-0.7514547989 2.766421346 -7.989347774
-0.7315690872 2.787642156 -7.987928757
-0.8609959656 2.589735215 -7.998836964
-0.8707334241 2.57795132 -7.999940764
-0.8510276652 2.573542102 -7.999877661
-1.069945149 2.506072214 -7.99811235
-1.068981107 2.491889427 -7.998205899
-1.05763403 2.49977834 -7.999327165
-1.003219232 2.545901081 -8.004641161
-1.595490579 2.607368086 -8.008275615
-1.640162191 2.777895032 -8.005931103
-1.625660576 2.781390306 -8.00318793
-1.581344587 2.745825724 -8.00552078
-1.583897654 2.733382652 -8.008107916
-2.12248007 2.817835668 -8.003880283
-2.09700628 2.809681459 -8.003410832
-2.148587354 2.840279575 -8.004535312
-1.960659357 2.830600983 -8.011334157
-1.96104093 2.809684307 -8.012202601
-1.954859701 2.81907054 -8.01120052
-1.946070585 2.756088035 -8.010669532
-2.042580495 2.848110999 -8.008438568
-2.061935552 2.850663825 -8.006271763
-2.307440918 3.049582547 -7.996810374
-2.103678676 2.851385732 -8.002896229
-2.071916867 2.835726597 -8.003502773
-2.129244552 2.973418895 -8.002432809
-2.145062248 2.983156725 -8.005031067
-2.140524657 2.961595127 -8.002777943
-2.132384092 2.942600077 -8.002218922
-1.995875909 3.076403044 -7.994636464
-1.990204967 3.064791915 -7.993786859
-2.007994853 2.881115324 -8.007912448
-2.086786468 3.351689499 -7.980266949
-2.096330683 3.331564499 -7.989452355
-2.376374057 3.078471715 -7.999810325
-2.390276837 3.087292063 -8.001262145
-2.388493658 3.074030335 -7.999419292
-2.182955934 2.982239409 -8.004728302
-2.163253745 2.994289111 -8.006204446
-2.179927878 3.007374611 -8.006889108
-2.360780554 3.076717963 -7.998854488
-2.338676308 3.075983739 -7.997450353
-2.169527237 3.140949351 -7.998042973
-2.179318376 3.128725864 -7.995424464
-2.164361693 3.123553433 -7.997517801
-1.992669888 2.804494985 -8.012011629
-2.00105286 2.792866139 -8.010572492
-1.977012922 2.788176402 -8.011481593
-2.619827534 3.56858619 -7.305450249
-2.650064687 3.53372302 -7.474288957
-2.631415162 3.516144822 -7.496823174
-2.621373138 3.507790864 -7.466453786
-1.788530674 3.51433121 -7.987864292
-1.78852556 3.495477372 -7.989113767
-1.766509128 3.504017637 -7.988212234
-2.194107666 3.128174016 -7.993685087
-2.190529361 3.144722659 -7.995904211
-2.545802272 3.238195359 -7.948188839
-2.563012778 3.231539825 -7.958401766
-2.545018591 3.228872543 -7.965967449
-3.025143926 3.415154687 -7.99048422
-2.805979929 3.449603781 -7.796784721
-2.804940997 3.453931324 -7.783686637
-2.817405266 3.455805296 -7.792652019
-1.356345645 4.913398823 -7.936033497
-1.375973862 4.872852633 -7.935555752
-1.519728073 3.34433398 -7.997838954
-1.633881855 2.553576264 -8.014824169
-1.613984229 2.543347232 -8.014593165
-1.768892967 3.250222708 -7.989343218
-1.578773871 2.518423544 -8.014431439
-1.166882344 3.021311344 -7.993510273
-1.168275612 2.99828219 -7.995477482
-1.146398499 3.004602727 -7.995853435
-2.602696891 3.563734146 -7.308431599
-2.602755922 3.545616463 -7.317999723
-2.584845654 3.553451739 -7.312869246
-1.720192935 3.390208293 -7.994406786
-1.717047197 3.376577951 -7.995075585
-1.704829745 3.383994898 -7.992931726
-1.716761421 3.363988224 -7.995106329
-1.725449201 3.369404168 -7.996584434
-1.461929546 4.413020449 -7.951745903
-1.524484658 4.362333308 -7.920102655
-1.502545209 4.309719183 -7.927282977
-1.666554104 3.6109943 -7.98004604
