# .PCD v0.7 - Point Cloud Data file format
VERSION 0.7
FIELDS x y z
SIZE 4 4 4
TYPE F F F
COUNT 1 1 1
WIDTH 1794
HEIGHT 1
VIEWPOINT 0 0 0 1 0 0 0
POINTS 1794
DATA ascii
129.9857 93.92732 2.378027
132.6207 89.94689 2.368143
131.4153 91.85703 2.321876
129.6366 94.3531 2.386571
129.3494 94.71638 2.435155
125.7579 97.52885 2.857148
127.8629 89.14218 4.153296
129.8439 129.9232 2.298295
129.7243 127.2279 2.35628
132.2829 129.267 2.154986
132.5078 126.7944 2.294758
132.2785 131.2553 2.104326
126.5869 127.685 2.628006
130.8818 132.3959 2.195633
127.6105 131.2592 2.885329
131.8959 134.2826 1.899978
131.8339 134.3451 1.859939
131.8002 134.3529 1.922439
131.9582 134.4271 1.918533
105.3266 66.35313 6.86521
110.3048 65.23598 6.369608
108.6029 70.03673 6.797461
113.701 74.63048 5.925513
106.2931 75.20857 7.422091
99.38734 75.63041 7.996793
102.4191 70.32577 7.534762
105.5793 61.67348 6.285379
118.4544 69.69302 4.905133
121.3379 64.98994 4.056626
123.3271 69.48992 3.610824
115.9578 64.78679 5.442243
126.0339 70.75165 2.763901
126.1584 71.6657 2.734726
127.7221 71.61493 2.215684
126.3449 72.58757 2.738388
122.0224 75.67348 4.349223
113.5479 68.78676 6.378031
117.1501 82.09921 6.036473
123.6776 83.46642 4.181739
119.5265 89.37652 5.023408
91.34131 63.85309 6.741302
87.83105 71.83741 7.065758
82.75592 66.70459 6.152306
99.58846 93.7514 6.760943
97.84698 97.23576 5.452103
94.66148 92.5092 5.759233
89.01262 89.67716 5.825271
94.19789 86.33346 7.126789
103.305 92.45847 7.294149
102.8982 97.00922 6.675617
104.1074 106.2787 4.337111
108.1162 100.9936 6.09444
109.125 106.9272 4.482011
132.8346 66.95872 1.842154
132.4047 76.96648 2.490952
133.6676 77.81415 2.439683
132.5814 73.11104 2.2672
131.1425 76.04852 2.549546
84.35419 93.75524 4.811228
83.15843 86.72012 5.389356
95.74202 101.5443 4.585644
101.2478 101.5561 5.383987
98.4346 105.6654 3.914623
99.70624 65.00156 6.871189
95.4648 70.41167 7.635099
103.4869 88.69287 7.950646
106.3707 85.64211 7.977505
107.4131 90.8374 7.429407
112.7026 88.26322 7.255461
115.7538 93.60696 6.084683
122.7877 93.73589 3.263643
124.8251 88.9078 3.261449
109.9522 80.99372 7.017671
103.2523 80.48197 8.205045
100.5789 85.18896 8.36007
99.32529 89.77878 7.521078
96.76674 80.93507 8.440026
91.4621 81.65379 7.188558
92.67645 76.61866 7.247399
85.93236 79.57954 6.352496
128.1779 85.80627 3.466165
132.6253 88.38831 2.373881
111.1819 94.81005 6.710901
106.6909 95.24753 6.815634
113.7736 105.0913 4.529378
132.4 78.88445 2.448105
120.7841 98.63039 3.196378
115.2556 98.94677 4.204431
118.8954 95.064 4.404753
119.0243 103.271 3.448816
118.2311 108.3803 4.09371
123.0177 101.6148 3.203092
127.3921 61.09155 2.742545
126.4065 62.72826 2.763418
125.7705 63.79074 2.791249
127.105 61.59545 2.775992
126.5598 65.68526 2.615101
88.73032 111.3685 3.467593
95.46463 114.4466 2.995427
94.65166 109.0052 3.29023
126.2282 142.3255 1.455024
105.6146 143.0129 1.846003
98.95209 128.177 3.27362
95.74243 121.4583 3.535707
103.6772 123.5482 3.171941
118.5183 131.2357 2.647531
120.0586 136.7396 2.335761
114.7022 135.2591 3.061955
108.6473 134.2005 3.849672
111.9281 129.8997 3.416693
121.8615 140.6693 1.848333
133.1437 124.3217 2.415854
123.2953 105.4272 3.031459
126.4276 99.47416 2.449799
126.1405 100.3921 2.43991
129.8084 99.71636 1.350435
126.9056 98.12652 2.447725
126.6522 98.82963 2.398164
125.8536 101.3179 2.429412
125.8536 101.8101 2.377654
130.6167 104.3257 1.301849
123.889 114.9038 3.321493
129.1257 115.31 2.482751
125.9744 118.6967 2.920735
121.0533 119.2748 3.665849
115.2227 119.5053 3.149611
117.7484 114.099 3.793658
129.824 117.3413 2.162926
129.6328 118.1147 2.138389
129.4082 118.896 2.175986
130.4267 118.9467 1.915367
128.1794 121.81 2.817463
124.6929 122.1303 3.156328
131.9668 120.3764 2.033287
133.1672 120.6577 2.008263
131.57 121.9819 2.456625
130.8286 120.0288 2.099815
133.5786 120.7983 1.974449
130.3549 119.8881 2.100425
129.8816 119.6733 2.108847
130.2937 124.4858 2.630574
120.7427 126.8763 3.74458
122.0288 123.5639 3.338089
123.574 126.3139 3.158157
123.751 131.2787 3.053906
118.5853 122.724 3.41902
124.4736 128.6264 3.481764
114.6878 125.0834 3.561717
127.6249 134.931 2.021313
126.1374 135.4349 2.051586
127.2802 138.1537 1.576731
124.6499 135.8646 2.088572
123.6028 134.9662 2.342234
124.1672 138.4232 2.122506
124.1049 138.5638 2.074532
123.976 138.5013 2.172188
124.0712 138.638 2.128731
132.5115 111.814 1.61813
131.1577 108.1421 1.83676
126.8582 104.0757 2.358488
127.0162 104.5015 2.319547
127.064 107.4351 2.519985
127.2027 104.9351 2.374479
127.303 103.8609 2.299773
128.3025 107.6187 2.283047
128.9964 108.5405 2.238126
127.6431 111.3725 2.821009
129.7185 109.4702 2.289517
122.8316 110.3491 3.229698
129.9385 110.5249 2.216518
130.1873 111.5991 2.238246
130.2449 114.0718 2.169031
130.3694 114.7788 2.161829
130.4937 115.4155 2.162439
127.2231 124.7162 2.799761
124.6306 124.8646 2.834427
132.8046 136.9037 1.873854
132.6801 136.4076 1.859084
133.6224 137.2748 1.955153
132.9288 137.3295 1.895949
131.0683 141.2552 1.363841
133.5651 139.3568 1.543409
127.9404 134.9349 2.030835
127.7829 134.931 2.02583
133.8759 138.4584 1.805861
133.5602 137.9701 1.848097
133.4982 137.8998 1.82173
133.4982 137.8256 1.829543
133.1825 137.6107 1.84297
128.0363 134.8607 2.009961
132.0539 134.4271 1.890335
132.0539 134.3529 1.898147
132.0204 134.4975 1.944534
132.2404 135.2787 1.901199
132.5226 136.0521 1.891188
132.6181 136.2631 1.840529
130.9155 134.4271 1.919265
131.9916 134.349 1.864822
128.1444 96.41559 2.410495
102.1708 133.6692 2.823423
105.7677 129.1185 3.473696
94.98213 133.5481 2.334528
91.4668 127.7434 3.221614
87.57867 122.2043 3.879452
84.06772 116.6301 3.536069
90.28056 117.2278 3.849427
110.7746 115.3998 3.353224
109.3737 120.8529 3.149729
94.44183 139.3176 1.837088
98.45009 139.8957 1.928032
98.86098 139.5403 1.946343
90.43356 138.6691 1.753956
115.9456 138.1614 2.380192
115.7879 138.1614 2.375675
112.9085 138.6028 2.465761
112.1194 139.0911 2.390077
111.3589 139.5208 2.417786
110.8521 139.4544 2.472595
115.6919 138.1653 2.404361
114.3003 138.3841 2.434634
116.9976 140.5911 1.806582
91.68588 104.4974 3.613595
91.52818 103.0248 3.763376
90.61484 106.5951 3.296332
93.98663 105.0052 3.755075
91.90608 105.974 3.495552
90.20323 101.8841 3.812081
100.2761 110.056 3.156687
98.03273 109.6341 3.197946
95.78983 109.1419 3.246529
100.4675 110.5404 3.047922
95.2205 109.0755 3.268135
94.71367 108.9466 3.330269
89.673 94.18495 5.465405
100.6873 110.2631 3.115916
100.4675 110.1927 3.085032
102.261 113.4466 2.986276
101.0986 110.6107 3.059642
103.1696 116.7044 2.892403
106.7666 111.1068 3.654005
103.4853 116.2865 2.946358
88.60614 84.74359 6.206133
92.74327 97.4662 4.926099
83.98198 127.8059 3.11785
109.1012 125.556 3.3133
120.4077 137.4349 2.209052
120.03 137.2982 2.180854
119.6809 137.1614 2.248114
110.919 139.7903 2.31195
110.2874 140.0012 2.271423
109.6228 140.22 2.292418
85.72182 105.595 3.25507
124.4252 137.1419 2.074777
123.9138 138.638 2.123726
123.7556 138.638 2.119698
123.1242 138.4232 2.123116
122.4931 138.2122 2.126167
121.4504 137.8607 2.164375
117.782 137.6614 2.297918
84.33926 99.95052 3.586493
90.92589 101.3412 4.017404
90.76793 100.8568 4.064524
91.14586 101.8373 4.003854
127.4229 105.9233 2.308683
127.6094 106.9116 2.30502
125.6002 101.8101 2.401457
125.6002 101.9507 2.386321
125.629 102.1031 2.466398
112.6879 110.3295 4.358354
127.9251 107.2671 2.27792
126.2601 103.0874 2.381926
125.6956 101.5991 2.39511
129.6618 119.3178 2.107749
130.1443 116.4038 2.111901
130.2161 112.8726 2.200648
127.6698 74.56413 2.602157
129.0233 76.54851 2.560775
125.9858 65.63839 2.793445
125.9858 65.98995 2.756824
126.0481 66.27119 2.760364
130.0995 76.32977 2.520492
125.895 64.71262 2.761097
133.6188 62.06422 2.541132
126.0102 68.54462 2.741808
85.28809 143.3331 2.188521
90.05563 135.9894 1.992482
89.70679 133.3293 2.326224
87.40163 133.1848 2.303884
103.9877 117.2747 2.952584
103.6389 117.7044 2.959785
103.2895 118.1302 2.968696
105.3807 137.927 2.81915
111.1387 139.6536 2.364929
108.5176 140.5637 2.222715
105.5479 141.6887 2.110164
107.4752 140.8489 2.193662
102.7536 117.7747 2.958076
102.1845 117.3607 3.017158
101.6354 141.7356 1.924615
98.88979 139.9035 2.00396
98.66982 139.8996 1.96624
103.9255 116.9896 2.948678
103.9255 116.638 2.985787
98.86522 117.2239 3.090398
95.60841 117.095 3.196964
98.32559 138.2746 2.031915
97.47429 137.4231 2.064019
99.17691 139.052 2.007135
93.65215 115.3919 3.286319
94.59914 116.2396 3.224918
100.8784 110.4701 3.036448
88.20424 97.42712 4.571482
88.89784 97.00916 4.667796
88.61098 96.59901 4.797923
89.15126 97.43103 4.599559
102.4247 140.6145 2.06634
99.30141 139.4778 2.029717
94.68022 108.8802 3.400093
94.65166 108.9427 3.297065
103.7055 116.4974 2.962716
88.48647 96.37635 4.753856
88.39076 96.17323 4.804637
87.25261 94.77088 4.981517
85.80341 94.26306 4.896433
87.82144 95.47009 4.893504
93.32672 107.8021 3.344795
91.93929 106.3216 3.396919
92.00154 106.6771 3.393135
91.33702 102.4701 3.879465
89.94495 99.16931 4.281321
99.23917 139.2629 2.018487
93.93964 138.0402 1.861014
89.45337 132.0715 2.483207
89.16628 130.8176 2.702202
91.16022 113.4153 3.356143
88.78395 129.0676 3.001885
88.06154 131.1574 2.633109
88.97511 129.9817 2.848198
106.5282 141.2629 2.121151
116.1562 142.2044 2.310121
119.7287 142.2005 2.227237
132.6484 90.98462 2.27417
133.1406 91.61597 2.203369
132.2344 90.92236 2.351807
133.6289 92.18506 2.16687
132.9609 93.07935 2.559814
120.9023 61.39868 2.014771
116.4844 64.15869 1.794189
117.3242 62.59912 2.388062
115.5664 62.3457 2.548828
122.0078 63.0249 2.390259
120.1953 63.23071 2.066162
121.1406 64.66064 2.241943
129.2734 70.71045 1.902222
127.5391 71.5813 1.614258
128.9727 72.37964 1.756958
127.9375 73.17358 2.001953
116.2852 69.08887 3.986694
117.8984 69.60571 3.134521
117.5508 70.18359 4.551636
120.4062 73.11572 4.035767
119.0547 71.27905 4.04187
120.9023 71.59082 2.631592
105.0391 65.09595 3.703491
104 66.16235 4.6073
104.5859 65.03296 4.832886
57.51562 63.88843 4.203613
58.88672 65.8064 3.747925
56.45312 65.78223 4.259277
52.74219 70.01953 4.777222
53.93359 69.10156 4.583496
54.13281 70.42651 4.491699
62.87891 62.39136 3.238281
64.16797 61.42017 3.38562
64.66016 62.99878 3.287231
57.46484 68.20239 3.72998
59.3125 70.05396 3.098999
57.11328 70.74268 3.119995
55.23047 71.58862 4.149902
53.49219 71.90918 4.483154
51.61719 75.97021 4.177734
52.73047 74.06128 4.688721
53.26172 76.0415 4.288086
35.60547 99.49341 3.222168
36.71094 98.77173 2.206665
37.64453 98.7041 3.030884
35.35547 99.24048 2.176025
36.05859 99.02051 2.140015
35.01562 98.88721 0.9516602
49.64844 90.70044 5.691162
46.85547 89.50464 6.148682
49.04297 88.83569 4.667725
49.1875 86.98511 4.040039
50.76562 88.90308 3.56189
33.60938 99.88647 1.769043
34.15234 99.74292 2.193115
34.78516 99.52271 2.164551
46.47266 91.28979 4.578369
44.77344 89.40063 3.924683
39.77734 97.604 2.998535
39.57812 98.96704 3.169434
123.7227 78.70288 2.439697
123.6523 78.22925 2.460571
123.7148 79.23828 2.391968
38.20703 98.17847 2.288696
38.91406 97.86279 2.223511
39.05859 97.2561 0.9241943
39.55859 97.51831 2.261475
30.10156 101.4983 2.154053
30.52734 101.2783 2.147339
30.94922 101.0583 2.141235
30.41797 101.8755 3.126831
31.98047 101.0908 3.143555
33.77344 100.5649 3.319946
32.34766 103.3823 2.591431
57.23828 73.14771 4.305054
59.44531 73.74512 5.039429
58.41406 75.12305 4.72522
51.20312 90.04053 5.642944
122.9648 83.03589 2.674805
123.4336 82.93555 2.4375
124.3125 83.94409 3.332275
123.9297 83.03125 2.414062
124.5195 82.73486 1.947754
124.4336 83.1604 2.453003
123.5859 81.7688 2.489258
123.5039 82.36646 2.415527
122.9102 81.11304 2.834106
124.4688 78.56885 2.110596
122.3672 78.87427 3.053101
123.7188 79.74512 2.439453
123.8633 80.88354 2.454224
123.7227 81.35718 2.454834
125.5 80.55347 1.814209
123.582 77.75586 2.481934
123.5781 77.65991 2.453247
123.5781 77.72217 2.419922
122.832 76.90894 2.7771
123.793 80.31445 2.446899
121.7344 79.81177 3.822144
121.5508 77.7644 4.062134
122.3008 82.08813 3.822021
122.375 81.93042 3.818726
122.1641 82.60522 3.15332
122.3398 81.87769 4.173828
122.3125 81.7627 4.560791
122.2344 82.24585 3.823853
121.9961 103.3157 1.56604
121.5 103.5359 1.579956
121.5391 102.22 1.964478
123.1641 103.8469 1.23645
122.4883 103.0957 1.55249
121.3633 105.2866 0.970459
122.832 105.052 1.426025
123.2656 104.5498 1.490845
122.4023 105.5876 1.423096
123.4453 105.793 1.847534
119.5664 64.74658 2.119263
118.3828 63.78076 1.637329
54.43359 75.32861 4.630615
123.4766 104.3296 1.506226
123.6953 104.1096 1.522461
124.9648 104.6689 2.134155
123.5469 103.9185 1.480103
123.3398 103.6985 1.539917
124.0586 102.7314 2.9552
119.543 103.7083 1.209473
121.0664 103.2488 1.539185
120.5781 102.9333 1.599854
122.8047 83.41797 3.855713
125.9336 83.86279 2.560059
125.9961 85.00562 3.790161
129.1094 79.89844 1.708374
127.4531 80.12793 2.161377
128.7031 81.6394 1.858398
127.1719 85.78906 5.579956
127.5508 86.47437 3.073486
126.3438 78.87988 1.744629
126.6758 77.35889 1.564087
126.7656 85.03027 2.405396
126.8438 85.12598 2.42627
126.9062 85.25024 2.352417
126.6289 84.87231 2.424561
126.6992 84.93457 2.383423
126.918 85.22144 2.447266
128.1797 78.5354 1.656494
126.9219 85.25488 2.509277
126.9844 85.28369 2.406616
126.7148 82.0459 1.928345
128.0078 83.60034 1.999512
126.1367 83.57617 2.452393
126.2734 83.73413 2.432129
126.418 83.82959 2.446289
125.7109 83.70068 2.429688
125.9219 83.63843 2.441528
125.0703 83.41382 2.4104
129.0469 76.48828 1.785156
124.9766 76.17261 2.223755
127.1875 74.88599 2.283936
130.5664 78.43994 1.376343
130.0547 83.09814 1.894043
127.6914 85.63306 2.385376
129.0547 85.52783 1.894653
128.4023 85.91968 2.396973
126.4883 83.9873 2.43396
126.4883 84.14551 2.429443
126.5547 84.52319 2.379761
131.1602 89.40161 2.319702
131.4414 89.7793 2.247681
131.5859 88.97144 1.620605
131.7227 90.12866 2.270386
131.9375 90.44409 2.238403
130.5039 90.22363 3.476318
132.1484 90.69775 2.240723
128.543 86.90039 2.416748
128.9492 88.25391 2.205688
128.6211 87.88062 2.442383
132.2891 90.69775 2.226074
132.4336 90.73096 2.272949
128.8281 88.03857 2.415405
129.0039 87.76001 4.724609
128.9688 88.19629 2.395752
128.9727 88.29175 2.42395
129.1055 88.41626 2.342896
128.9648 88.25854 2.362427
129.1797 88.51221 2.364746
120.0781 103.2773 1.546875
119.582 103.5933 1.590088
119.7461 102.9656 3.846802
119.4297 103.6221 1.51001
119.2266 103.6221 1.531494
118.332 103.3633 2.490967
131.1211 86.6521 1.230469
132.9766 84.7959 1.31311
131.1484 84.48047 1.515015
133.4023 87.07275 1.327026
132.0664 91.89233 4.182861
130.168 88.95679 2.342041
132.2109 82.36646 1.498535
133.8477 80.31958 1.546021
130.5391 80.88354 1.751099
132.0586 79.9939 1.426025
132.9922 78.07129 1.481201
131.7422 75.67505 1.779419
129.6484 74.06787 2.144043
125.0391 113.3694 1.453125
123.957 115.0051 1.327271
125.5234 115.2009 1.37854
133.3789 107.2839 3.138916
126.293 103.874 3.956421
131.2188 107.7437 2.876587
131.4531 104.1553 4.388672
121.6289 102.3918 3.475586
122.875 102.5449 3.18103
121.6367 102.5918 4.898438
126.8125 104.8127 1.459106
126.6016 104.8127 1.481079
127.0039 104.8701 1.246582
126.9531 104.8127 1.444458
129.1562 105.8313 1.467163
122.9102 103.4114 1.499023
129.3711 103.4915 3.516724
127.0977 104.8127 1.429321
127.168 104.7505 1.4552
128.8594 105.9221 1.368408
128.6562 105.6064 1.399902
129.0039 106.1758 1.377563
128.2578 107.4912 1.066895
128.8555 107.343 1.326416
128.8555 106.8691 1.339966
128.9297 106.5535 1.342163
128.7891 107.8496 1.382202
129.6172 108.4661 1.847778
127.9414 105.1616 1.392944
128.4336 108.5432 1.366943
128.0234 109.9685 1.526123
128.0859 109.2703 1.412842
126.793 106.7354 1.307739
126.7305 107.3999 1.358032
126.3789 105.2527 1.42749
126.0938 105.6926 1.380737
124.9062 106.7688 1.56897
133.6992 92.87891 2.107178
133.7031 92.56299 2.116211
133.1016 109.9819 2.515503
58.14453 81.32544 6.156738
58.23438 83.55444 5.667603
57.52734 82.05835 4.294067
47.26562 87.36816 3.309814
49.10547 83.9292 3.282227
49.99609 86.13452 2.963989
48.47656 85.479 3.397705
49.04297 81.83423 4.019409
50.42188 83.05835 3.615112
54.76953 80.60522 2.467163
54.70312 80.76318 2.468994
54.76172 81.04541 2.391113
53.42578 79.76807 3.142334
55.03516 79.00757 2.900635
54.5625 80.85864 2.512939
58.25391 79.32617 5.855835
57.71484 80.39819 4.768188
57.85547 79.02075 4.127319
54.84766 76.95044 3.870361
56.51562 75.54395 4.213867
56.90625 77.82104 3.182983
59.00391 71.9187 4.220093
51.09375 81.55176 3.875122
49.90234 79.84912 4.115112
51.85156 79.74878 3.721558
50.79297 77.97925 3.822998
52.92188 77.92163 3.790894
53.70703 82.05444 2.440674
53.26953 82.65234 2.405518
54.68359 82.88721 1.645874
52.92188 81.40845 3.114746
52.85547 83.22168 2.464233
52.3125 83.32178 2.708862
56.35547 83.15381 4.066528
56.22266 82.1355 2.776733
57.14062 80.30371 2.703003
54.55859 80.98315 2.446411
54.49219 81.07886 2.482422
49.87109 84.50854 2.485107
50.08203 85.13965 2.444092
50.83594 85.20703 1.44165
50.29688 85.80444 2.465576
54.125 81.5813 2.410767
55.27734 81.05005 2.496216
55.48438 80.83008 2.511963
55.05469 81.27026 2.481323
55.12891 80.70093 2.458374
55.41016 81.83911 2.458496
55.69922 82.34619 2.476196
57.84766 85.49121 6.031494
50.29688 84.35059 2.445557
50.65234 84.22607 2.475098
50.64453 86.43555 2.409424
50.9375 87.10059 2.422607
52 88.0957 1.772217
55.47656 82.62817 2.427124
55.19922 82.94409 2.447876
124.1484 75.45044 2.460327
124.0703 75.98608 2.4198
123.4688 74.76147 2.742554
124.0078 76.49292 2.474609
123.7891 77.09106 2.416992
121.4688 75.23438 3.987305
133.0391 130.1228 1.950439
133.1875 131.103 1.969727
133.3359 132.1169 2.050537
132.2852 130.4431 2.180298
133.1953 132.5283 2.084473
132.5742 90.88892 2.252686
126.6602 108.0649 1.409302
127.3789 108.6675 1.410767
133.1445 93.87695 4.931274
126.8828 110.9729 1.426636
126.3125 111.1929 1.44751
126.5117 111.853 1.311646
127.3828 110.7864 1.474243
126.1289 110.126 1.720825
117.3359 103.1472 3.841187
113.8242 106.3535 1.510132
111.2383 105.5962 3.965698
114.3984 102.9854 2.948364
53.40625 85.37012 0.276123
47.41406 92.11572 6.774048
52.35156 87.95679 2.375122
52.35547 87.57886 2.417847
52.27344 88.27246 2.373901
54.04297 85.29126 5.008667
53.25391 88.80225 4.161377
120.7227 102.6787 3.657593
38.33984 100.4404 2.905518
33.60156 98.01245 0.3641357
46.16797 92.73975 2.374268
45.46484 92.0752 2.405518
45.39453 91.80273 1.754028
46.80859 93.34253 2.384644
45.80859 92.89185 4.346558
47.40625 93.98315 2.620483
126.4414 106.2285 1.296753
31.23828 99.54785 0.1860352
31.08984 100.9626 2.097412
31.51953 100.6804 2.12439
31.73828 100.5559 2.168945
31.23828 100.8381 2.14917
40.48438 94.99878 0.3011475
41.44922 96.58105 1.359497
44.29688 94.37207 0.07714844
46.53906 136.0105 1.834961
45.53516 139.4685 2.408325
49.01562 138.2483 2.459229
53.52734 138.6831 2.797607
49.30859 142.189 3.200195
36.26953 97.66309 0.03039551
37.0625 98.61377 2.174072
37.35156 98.42725 2.244629
54.90625 73.6167 4.37793
65.92188 61.2478 3.777954
62.71484 67.89087 4.393799
61.07812 66.44238 3.656616
62.61719 65.67163 4.152588
64.26562 66.41699 5.671753
60.13281 68.04492 3.454224
61.57031 69.93823 4.294067
60.80469 64.6438 3.770874
62.60156 63.94092 3.31665
60.77344 62.66357 4.119629
59.27734 63.85938 4.11377
122.1367 73.18311 2.929321
122.8359 64.53638 2.130737
123.7734 65.87036 2.277832
124.3398 64.51196 2.226562
124.9297 72.86255 2.486694
125.0039 73.43188 2.493042
126.3125 72.92017 2.148071
125.2812 74.31665 2.468994
125.0781 74.00098 2.500488
124.3086 72.83398 2.648315
121.9805 66.0813 2.111084
122.5195 69.69653 2.517212
122.2422 70.01221 2.537476
124.0742 69.09863 2.435181
123.1289 71.20801 2.28064
121.9648 69.63428 2.609619
122.8086 69.41455 2.559448
123.7969 72.16455 2.499756
124.2188 72.26025 2.484131
125.5352 70.76807 2.104248
124.6445 72.29395 2.501709
131.625 73.37427 1.988281
133.7344 73.25 1.832642
114.3359 64.21143 1.669556
113.3438 62.26953 2.340698
111.9883 64.29785 1.628906
109.8477 64.40283 2.200195
111.082 62.45605 2.478149
126.9727 63.25879 2.30481
127.957 62.15405 2.234375
125.5469 61.86255 2.24231
129.5898 60.95801 2.224609
123.918 63.15381 2.280396
123.1133 61.4082 2.099976
118.9219 61.86768 2.051025
117.9883 60.99683 2.620239
110.668 66.03857 1.874634
113.0859 66.20581 1.932251
115.6406 62.06348 2.613037
115.4336 62.06348 2.634521
115.8594 62.00122 2.623779
114.6445 61.83887 2.598022
113.7969 61.55176 2.600098
120.0977 66.14819 2.434814
116.5664 61.93896 2.582886
117.2773 61.9104 2.60437
117.625 61.43677 2.581787
113.3672 61.61401 2.611328
112.9492 61.61401 2.655762
113.7227 66.82764 2.577637
114.4336 66.70312 2.569946
115.4492 66.06226 2.163574
115.1406 66.57861 2.562744
114.5312 67.77393 3.512329
117.8711 65.81812 2.201904
104.6797 66.47314 4.36731
118.8125 67.9751 2.387939
120.8828 67.88867 2.457886
116.3477 67.2146 2.574951
116.7695 67.15234 2.564331
117.1289 67.09009 2.560059
116.7227 67.82178 2.770874
111.2344 66.43994 2.565063
112.0117 66.47339 2.545532
112.8047 66.54028 2.587036
112.2148 67.14233 3.775024
115.7773 66.92773 2.548828
113.2891 66.69824 2.53125
119.7539 69.87817 2.549194
119.9688 69.81592 2.560059
120.75 69.37622 2.554565
121.5312 68.93628 2.549438
119.8945 69.87817 2.534058
117.5547 67.50146 2.53479
117.9062 67.85059 2.550659
118.2578 68.104 2.537354
118.6211 68.29541 2.557251
119.1875 69.11816 2.536499
119.6953 69.84985 2.652344
119.6836 69.87817 2.556519
119.8281 69.97437 2.570679
119.8359 69.84985 2.637207
119.8203 69.94043 2.508179
125 74.37891 2.465454
124.5742 74.91455 2.462158
122.0234 70.70581 2.508179
121.7383 71.43286 2.547119
124.7852 72.60913 2.477539
122.3086 71.68628 2.512329
122.8047 71.87769 2.517578
123.2891 72.0354 2.461304
125.0742 74.22095 2.462769
125.2891 67.36719 2.51709
125.082 67.46313 2.568848
127.2812 67.08984 2.53894
125.9258 68.75879 2.504395
124.9375 67.20923 2.559692
125.2227 67.20923 2.529907
125.5547 65.49707 2.29187
125.0078 67.42944 2.513672
124.8711 67.36719 2.561523
125.5078 67.24268 2.561646
125.6211 63.82324 2.302856
127.25 64.8374 2.228394
128.3633 63.76099 2.047607
129.7188 68.44336 2.114014
131.5469 68.91699 1.908081
131.543 67.20923 1.863892
121.8789 69.03174 2.541138
122.9414 67.57788 2.409424
122.168 69.06519 2.573364
124.8633 67.33374 2.5
124.8672 67.27148 2.533325
124.9336 67.27148 2.526489
30.96875 106.0225 2.276733
127.5703 69.50513 1.927002
122.5234 69.22314 2.53125
132.957 68.69653 1.796997
130.9844 70.37085 1.986572
132.3789 70.02148 1.786621
133.5234 66.80273 1.793945
132.043 64.84204 1.882324
129.5 65.59741 2.063843
129.8672 63.26343 2.157959
131.7422 62.23511 2.436157
132.25 71.66699 1.878174
130.4727 72.10229 1.829956
133.5156 61.10132 2.379028
106.9883 63.82837 3.376831
106.4336 65.74609 4.171997
109 62.90552 2.937866
108.2461 64.77539 3.215454
108.4883 65.96069 4.806519
122.5156 82.81519 3.809204
41.33984 122.9482 2.996338
40.92969 120.8674 3.196655
43.32031 120.6665 3.618408
41.76172 119.0833 3.670898
44.45703 123.4314 2.970703
39.1875 122.083 2.803955
84.55859 121.2681 1.447021
84.69922 124.458 1.400146
89.12109 122.8462 0.9194336
88.66016 126.7295 1.931519
82.30078 123.0664 1.599365
89.15234 118.4504 1.842041
83.16797 127.3896 2.394897
83.58984 127.3896 2.350952
83.89844 127.9348 2.588013
84.01562 127.4231 2.36853
80.47266 125.3716 1.755005
84.71875 127.5186 2.32251
85.36719 127.5854 2.379639
78.48828 129.0208 2.489746
80.82812 128.2363 2.425903
77.67188 130.5129 2.817261
36.96094 117.7402 2.565308
36.88281 116.7595 2.538696
38.47656 117.0896 2.837891
36.3125 116.6926 2.474243
37.03516 118.6584 2.624634
36.88672 118.8787 2.601562
34.86719 118.1663 2.233154
35.95703 114.9854 2.467651
34.52734 115.8943 2.368652
35.89453 114.9565 2.569702
35.89062 114.9854 2.474976
35.95703 114.9233 2.500854
34.67188 114.0337 2.472168
34.75 113.4023 2.483398
35.31641 114.5405 2.453247
37.61719 115.0952 2.797363
36.69531 113.6365 2.716309
38.5625 113.0481 2.918579
36.30859 115.6504 2.473999
36.67188 116.2529 2.512573
43.29297 109.5889 4.048218
41.32031 112.6653 3.560303
39.50781 110.2451 3.124878
40.64062 106.457 3.119019
44.82812 113.176 4.446167
35.29297 120.5049 2.213379
37.29297 121.1792 2.363403
55.46484 88.18921 5.630371
114.3008 117.9136 1.336426
112.7227 120.4631 1.172729
115.5586 120.7546 1.119019
114.5039 125.3364 1.251343
112.1797 117.4973 1.38208
116.3008 118.0808 1.437988
92.25781 129.9763 2.376221
92.39844 130.1345 2.357056
92.60156 130.0386 2.306396
90.83984 133.0464 3.768066
87.97266 130.0288 3.525391
92.46875 130.23 2.378052
88.48828 127.595 2.368164
90.39844 128.8003 2.321899
92.89453 130.5791 2.386597
93.25781 130.8662 2.435181
96.07031 134.4578 2.857178
87.68359 132.3528 4.15332
119.0938 105.5977 1.041016
117.9727 104.6506 1.187256
119.1406 107.8213 1.446289
119.2812 107.6636 1.436646
119.5078 107.9839 1.561401
119.418 107.5059 1.426514
117.1719 106.4731 0.9318848
133.6484 123.6897 2.302124
122.375 116.1006 1.143311
120.4727 118.1526 1.282837
122.5234 118.1572 1.22522
120.457 115.082 1.090698
121.75 119.8311 1.288452
120.0508 121.0891 1.270874
132.5 117.0176 2.241089
133.4375 119.2991 2.360107
128.4648 130.3716 2.29834
125.7695 130.4912 2.356323
127.8086 127.9326 2.155029
125.3359 127.7078 2.2948
129.7969 127.937 2.10437
126.2266 133.6287 2.628052
130.9375 129.3337 2.195679
129.8008 132.605 2.885376
132.8242 128.3196 1.900024
132.8867 128.3816 1.859985
132.8945 128.4153 1.922485
132.9688 128.2573 1.918579
106.0859 63.39697 4.914307
108.0664 61.73804 4.151611
57.53516 141.7578 3.776245
57.52734 140.9973 3.703979
58.69922 141.6431 4.038696
57.55469 142.4897 3.943237
82.15625 120.8086 2.190674
80.3125 121.373 2.240967
82.72656 118.292 3.57251
83.92578 120.2441 2.147705
80.01172 121.7463 2.071167
79.88281 121.4019 2.190674
79.39453 121.4019 2.241943
75.46484 119.0864 3.423706
86.12109 119.3018 2.104126
88.32031 118.3928 2.121948
68.23438 141.7615 4.905151
63.53125 138.8779 4.056641
68.03125 136.8887 3.61084
69.29297 134.1819 2.763916
70.20703 134.0574 2.734741
70.15625 132.4937 2.215698
71.12891 133.8708 2.738403
74.21484 138.1934 4.349243
82.00781 136.5381 4.181763
87.91797 140.6892 5.023438
35.75391 140.4976 1.916138
31.30469 142.5444 2.164062
38.38672 135.8003 2.000854
41.01562 140.0615 2.64502
50.08984 135.125 2.50354
47.51562 133.5327 2.346313
31.79688 138.6274 2.134277
31.78906 136.0017 2.023438
66.76953 124.5591 2.428589
65.21484 124.4299 2.501831
70.00781 123.0327 2.832275
64.99219 121.603 3.086182
65.5 127.3811 1.842163
68.33203 124.6597 2.452026
63.57812 124.6453 2.476685
61.94531 124.894 2.51355
59.23828 122.9426 3.04834
74.99609 124.1091 2.369629
74.36719 124.1711 2.402832
75.62891 124.4868 2.26001
75.64062 123.9846 2.369263
75.50781 127.811 2.490967
76.35547 126.5481 2.439697
71.65234 127.6343 2.267212
74.58984 129.0732 2.549561
92.27734 137.428 3.263672
87.44922 135.3906 3.261475
84.34766 132.0378 3.466187
86.92969 127.5903 2.373901
44.78516 133.4519 2.033203
42.91797 136.2834 1.827271
41.5 132.7729 1.859619
39.91797 115.0134 3.002197
41.01953 117.113 3.363159
36.8125 116.5061 2.522217
44.78516 62.32373 6.068237
47.97266 66.98755 5.307251
42.89062 69.03467 5.62207
48.0625 71.30176 4.81897
38.24219 63.59644 5.988892
50.34766 63.63477 4.934692
30.08984 131.1951 2.060669
31.4375 132.4001 2.07251
31.875 130.3818 2.150635
33.51172 131.6201 2.194824
30.39062 129.2102 2.214966
34.32422 136.3508 1.808838
77.42578 127.8157 2.44812
77.55078 122.6934 2.301392
97.17188 139.4316 3.196411
93.60547 141.3203 4.404785
101.8125 141.1914 3.448853
106.9219 141.9846 4.09375
100.1562 137.198 3.203125
37.55078 123.1641 2.149536
36.64062 125.2161 2.185059
38.98047 124.4983 2.244751
39.02344 122.2979 2.624512
38.95312 122.2358 2.664551
39.09766 122.394 2.645386
39.02734 122.3318 2.686523
39.17969 122.4272 2.699585
38.13281 127.7175 2.206665
34.21094 125.0154 2.06543
35.77344 122.8726 2.091919
31.69531 121.1128 1.780029
30.75391 116.3538 2.275879
31.27344 64.31006 5.208862
35.88281 69.80981 5.860962
30.58984 134.4521 2.100708
32.85938 134.0168 2.09729
49.89844 131.5286 2.69519
54.22266 133.0251 2.639648
53.17188 127.3196 2.126465
59.13672 132.5083 2.803833
59.63281 132.8237 2.742554
61.26953 133.8093 2.763428
62.33203 134.4453 2.79126
58.96094 135.8992 3.165649
60.13672 133.1108 2.776001
59.25 130.0359 2.516968
64.22656 133.656 2.615112
59.26562 128.2705 2.66333
57.77344 126.7168 2.613647
56.27734 125.1001 2.59729
44.61328 126.9851 2.40332
41.40234 125.771 2.270264
41.28125 129.2002 1.798828
43.92969 124.6846 2.671265
43.36719 124.2732 2.711548
44.50391 125.1294 2.692993
44.35156 130.4148 1.947021
47.80859 128.7024 2.428589
46.74219 131.5098 2.393677
38.32812 131.5059 2.072876
35.73047 130.1472 2.355713
35.44922 133.2751 2.386597
40.94922 123.728 2.696289
40.45703 123.4746 2.724243
41.37891 124.0149 2.737549
39.8125 122.9343 2.680664
42.44922 124.144 2.717041
41.45312 124.0149 2.729736
41.38672 123.9863 2.832886
35.34375 127.4834 2.062622
33.70703 129.2771 1.990845
33.57812 127.2585 2.128662
48.47656 124.5408 2.672974
46.48438 124.8184 2.652222
48.41406 124.5117 2.775635
48.40234 124.5408 2.680786
32.09766 128.2678 2.222656
39.28516 119.5 3.061768
30.6875 127.1917 2.307861
30.88672 125.4507 2.180664
32.30469 126.1824 2.199219
31.84766 123.772 1.938232
31.34766 118.8074 1.854004
33.34766 119.6396 1.999023
32.93359 117.272 2.114136
33.76953 122.1985 1.942383
37.60156 119.7346 2.628784
37.03906 118.9121 2.648438
38.10547 120.4951 2.647827
37.03516 118.8164 2.619629
32.68359 114.8472 2.404053
34.46484 113.9382 2.465454
34.18359 113.7803 2.499756
42.32812 115.0085 3.637817
38.87891 122.0447 2.614868
38.74219 121.8245 2.667358
38.45703 121.1599 2.654541
31.95703 96.13647 2.277832
31.32031 96.45215 2.335205
31.17188 96.63892 2.25
32.53125 95.79224 2.32251
32.23828 95.146 2.944824
31.25781 96.45215 2.342041
31.11719 96.45215 2.356689
33.21875 100.2114 2.118042
33.43359 100.1494 2.128784
33.65234 100.0249 2.173462
33.93359 99.86743 2.149048
33.74219 94.18506 2.338501
33.66797 94.56274 2.303467
34.54297 94.86914 1.884155
33.52734 94.97412 2.337402
33.8125 93.86938 2.341187
33.8125 94.0271 2.33606
32.55078 92.2478 3.189819
34.52344 93.42944 2.342896
35.17188 93.02271 2.413574
35.78125 91.20483 2.848755
33.02734 95.41431 2.313599
37.48047 94.73999 1.483398
37.78125 98.30273 2.266724
35.80078 92.70703 2.356812
36.375 92.4248 2.368164
42.82422 96.3606 2.301025
43.24609 96.14087 2.29541
43.75391 96.22632 3.002197
43.6875 95.89209 2.383545
43.82422 95.85815 2.306396
43.89453 95.7959 2.331909
41.98438 92.96045 1.729126
40.04688 97.36084 2.214722
40.47656 97.17432 2.270508
39.20703 92.96997 2.339111
38.78516 93.12769 2.379028
39.57031 92.84546 2.36853
39.39453 92.41479 2.78064
37.57422 92.80762 2.357788
39.99219 92.7832 2.3573
40.42188 92.65894 2.379395
47.66797 79.91602 4.475464
47.25 77.13696 4.570435
48.99219 78.23706 4.195923
44.10547 79.28931 5.028809
49.58594 76.31909 4.445068
45.39453 94.71387 5.098511
46.94922 93.71997 2.327148
47.09375 94.06982 2.36499
45.37891 91.94604 2.32251
45.31641 91.88379 2.363159
45.39453 92.01294 2.446045
45.45703 92.04175 2.343506
45.1875 91.98828 3.772339
41.10547 100.522 2.16748
41.22656 97.30249 3.331055
44.46484 99.11572 2.332275
34.85547 103.4397 2.134766
34.78125 103.4397 2.142578
34.85156 103.502 2.10144
36.68359 102.196 2.61499
34.92188 103.4397 2.12793
30.89844 96.57666 2.312622
30.69141 96.67236 2.363281
45.3125 96.81909 3.646118
45.52734 94.91626 2.313477
41.33203 96.92554 2.314697
42.11719 96.64307 2.304199
40.90625 97.0498 2.292114
46.01953 93.34082 5.613892
32.50391 100.3982 2.091919
32.12109 113.0771 2.451782
31.69922 112.9194 2.501221
30.69531 113.7041 2.424438
32.54688 113.2063 2.498169
32.48047 112.2593 2.533936
31.19531 113.0439 2.486938
30.63281 113.1682 2.479004
30.30078 111.2788 2.730103
33.40234 113.4934 2.494995
30.89062 105.927 2.255859
30.96094 105.9893 2.21521
31.03125 105.927 2.241211
31.10938 106.0225 2.261597
31.10938 105.9602 2.294922
34.00391 106.1755 2.841919
32.14453 107.8066 2.639893
31.03906 106.0225 2.269409
31.03516 105.865 2.274414
31.10156 105.927 2.233398
33.78125 108.5715 2.697998
30.97266 105.9941 2.372559
47.40625 94.06274 5.318359
30.96094 105.927 2.248535
34.77734 103.502 2.109253
34.71484 103.5354 2.178589
34.72266 103.5688 2.240112
34.78125 103.5977 2.138062
36.75391 111.5176 2.646118
36.62109 108.4233 2.721191
34.41016 110.657 2.632935
39.55859 103.0476 2.255371
37.11328 105.1375 2.671875
34.91797 103.502 2.094604
34.92578 103.5354 2.156616
34.85547 103.5977 2.130249
30.27344 113.2927 2.450073
32.14453 109.8296 2.674072
44.26562 117.1887 4.512085
47.28516 120.2644 3.498291
49.85938 115.2129 4.426392
48.06641 109.8804 4.839111
45.78125 105.6479 4.062988
52.625 120.9294 2.979736
47.875 95.55713 2.365356
47.26953 101.832 2.018311
52.94531 123.8899 2.634644
50.73828 124.23 2.603027
62.67578 117.2065 5.304688
56.68359 116.3604 5.102783
68.65234 118.0625 4.775757
60.59766 71.36328 4.512695
51.36719 83.94385 2.471802
52 83.66162 2.477051
94.49609 114.0586 3.411621
92.25 115.2405 3.009033
93.41406 113.2256 5.266846
51.56641 88.39697 2.381104
51.91797 88.33472 2.377319
43.12891 102.8127 2.489746
50.42188 105.9624 5.661255
48.46875 103.1648 5.283691
48.59375 95.30127 6.459473
46.69141 96.33521 5.294067
46.62109 98.62134 4.629028
48.51562 96.76538 5.75647
51.375 91.11133 6.577026
51.31641 92.7998 5.993042
49.07812 100.051 5.69397
46.39062 101.5969 3.770142
51.12891 97.30542 5.591553
54.76172 97.86963 5.064331
52.09375 99.75415 6.020142
53.47656 101.1887 6.308228
51.23828 102.4993 5.996094
53.875 104.522 6.801636
109.3203 63.52734 2.568237
109.2422 64.06299 2.528198
109.1797 64.57007 2.583984
110.0586 118.6936 1.443115
110.168 122.8259 1.211426
106.6445 119.8845 1.480225
110.4062 108.4768 2.09314
107.7617 107.7346 3.982544
106.5625 109.9167 2.041626
116.2617 108.926 1.716919
113.6055 107.1091 1.447998
114.2422 108.1851 1.442871
112.8086 109.7876 1.292114
114.8867 109.2327 1.534424
114.2461 106.3535 1.465698
115.3789 107.3052 1.476807
116.5195 108.2568 1.487305
115.3867 109.7395 1.53064
115.8867 110.1843 1.559692
115.2109 112.3843 1.246338
114.4492 106.1953 1.448242
114.8125 105.6599 1.458862
114.7383 105.8176 1.461792
114.6719 105.9756 1.464111
116.0039 104.7129 1.360962
113.3477 115.2163 1.040894
115.8711 115.6465 1.429565
111.8164 112.8198 1.369019
110.7578 115.5654 1.367432
108.9922 113.4465 1.489502
96.17969 112.7625 3.209473
97.05859 111.3169 5.510742
99.23828 111.9207 3.261963
107.9961 116.2542 1.447388
106.2969 114.1021 1.499634
104.1211 108.792 3.794434
102.6445 110.7107 2.589844
100.6445 109.782 4.512085
107.2812 112.0166 1.395264
104.5273 112.2656 1.550781
106.0977 111.2944 1.668335
105.1836 111.5146 1.726685
106.9531 111.1079 1.679199
109.6523 110.9072 1.019043
107.3672 110.6963 1.615601
107.7969 110.3184 1.612915
96.95703 113.9253 1.853027
95.83203 114.3655 1.89563
95.73438 114.5808 1.708862
98.23047 113.4229 1.82959
98.08984 113.4851 1.810913
98.23047 113.4851 1.796265
99.36328 115.7097 1.03894
98.30469 113.4851 1.788452
95.75391 114.4277 1.870239
95.61328 114.5232 1.914185
102.8438 112.6143 1.781006
103.3398 113.2793 1.772217
103.7695 113.8821 1.804565
101.1602 113.0259 1.978516
103.2812 114.958 1.919067
100.8594 113.5569 1.803223
101.8477 114.3174 1.771362
102.7773 115.0491 1.842163
103.5547 112.2991 1.71582
104.1914 111.9546 1.75415
104.0547 114.2932 1.793945
104.2695 114.7046 1.79126
103.418 115.3982 1.827881
103.207 115.5557 1.844849
105.4727 116.6467 1.097656
103.6328 115.1782 1.843628
102.8711 118.2249 1.324463
102.9961 115.3025 1.843994
104.1211 114.8291 1.73938
103.9062 114.9246 1.790649
103.7656 115.0825 1.800659
118.5078 110.2847 1.471313
118.1562 110.5381 1.532593
118.5078 110.8538 1.485962
118.793 110.0022 1.512573
117.0156 110.3752 1.498047
117.8633 108.0703 1.446045
120.7812 109.9446 1.495605
119.5703 110.0981 1.460205
120.3555 110.165 1.502686
117.7773 122.916 1.328491
117.9922 119.6638 1.370972
116.918 103.9609 2.558838
115.375 105.124 1.447144
115.8789 104.6218 1.50415
116.0195 104.6218 1.489014
116.0977 104.6553 1.543701
124.0195 116.8992 1.263916
118.6484 103.9666 1.486694
118.0117 104.3445 1.510376
117.8711 104.4065 1.491821
117.7305 104.5022 1.535645
125.7148 123.9678 1.859009
126.4219 124.3167 1.836792
124.8828 124.9814 2.042847
127.1406 124.604 1.848267
126.7578 122.5425 1.632446
127.293 125.3022 1.938599
124.7969 124.4702 1.845337
125.2852 124.25 1.831421
124.3789 122.3037 1.286743
127.2773 123.6233 1.799805
127.3477 122.6143 1.854248
129.1016 122.7908 2.299683
125.668 111.3796 1.414551
125.0391 111.5374 1.47644
124.6914 111.4131 1.580078
118.2109 116.6936 1.341919
116.9453 104.593 1.488159
129.1719 114.8608 2.307495
131.5195 114.3633 2.329468
130.1016 117.2332 2.296997
127.8516 117.3721 1.894775
130.1094 112.8757 2.39502
129.7773 141.6973 2.647583
126.5391 113.5986 1.574707
128.3281 112.7234 1.697998
127.2695 115.1531 1.704956
126.5352 114.5457 1.546143
126.3281 113.9143 1.587036
126.7578 115.1484 1.600342
126.1094 113.7231 1.552124
125.8945 113.5317 1.51709
118.543 126.1873 1.817017
120.2461 123.887 1.833862
120.043 125.1208 1.913574
120.3984 124.427 1.928223
120.9258 126.144 2.234741
119.6211 125.8477 1.967773
119.5508 126.0056 1.970581
119.4766 126.1631 1.973389
126.2305 119.8784 1.354492
127.4805 121.5381 1.776855
127.5508 120.7153 1.731079
127.5547 119.9263 1.75415
128.5742 119.9353 1.964233
127.125 118.501 1.68335
127.3281 119.228 1.671631
127.418 122.1072 1.79834
124.6289 109.2654 1.618896
125.918 117.3103 1.083374
127.0352 115.4641 1.561035
126.8945 115.3062 1.580688
127.1133 116.4446 1.587646
127.1875 117.3628 1.647095
123.8594 119.5156 1.075806
127.1875 117.9319 1.661865
122.5078 107.998 1.721802
122.6211 109.7917 1.465454
123.1172 109.8875 1.442017
122.6836 110.7051 1.367554
123.5508 110.0166 1.487793
121.7656 109.8826 1.425293
120.9141 110.0068 1.447632
123.8984 110.6479 1.432129
124.1875 111.2505 1.479614
118.1133 113.781 1.153564
132.9805 112.5786 2.736328
119.8477 107.4436 1.414795
120.9062 107.1614 1.375
121.9766 106.8167 1.368042
119.6328 107.5059 1.404053
122.2617 106.0278 1.362671
122.0391 106.6592 1.366211
122.0469 106.4392 1.403931
130.293 110.5945 2.157837
131.5469 112.0962 2.585205
122.8633 127.0718 2.415894
122.5273 124.4653 1.925415
122.6719 124.3076 1.915283
123.7266 124.4033 1.83313
121.8945 124.2742 1.934326
122.2461 124.2742 1.897705
122.5273 124.2119 1.901123
122.1211 121.9209 1.409058
121.1758 124.3647 1.880005
122.5938 124.2742 1.860596
122.875 113.4172 1.171631
124.6172 111.853 1.510864
124.4727 111.5996 1.501831
124.7656 112.0444 1.553223
124.9023 111.791 1.514893
126.25 113.3115 1.5177
126.5352 113.0918 1.526123
127.3828 111.5132 1.483398
127.3828 112.2402 1.493652
126.957 112.6804 1.462524
120.6094 112.2747 1.222168
120.8438 110.0068 1.454956
120.7773 110.0068 1.46228
124.332 111.4082 1.459961
120.5625 110.0691 1.45105
111.0586 109.5054 1.548218
110.0703 109.6299 1.585205
111.9766 109.3188 1.552368
108.9297 109.9741 1.599609
112.8281 108.2141 1.495972
131.1016 120.0835 2.42334
103.9688 136.9204 3.031494
98.01562 133.7881 2.449829
98.93359 134.0752 2.439941
98.25781 130.4072 1.350464
96.66797 133.3101 2.447754
97.37109 133.5635 2.398193
99.85938 134.3621 2.429443
100.3516 134.3621 2.377686
102.8672 129.5989 1.30188
99.29297 125.1272 1.113037
113.4453 136.3267 3.321533
113.8516 131.0898 2.482788
117.2383 134.2412 2.920776
117.8164 139.1624 3.665894
112.6406 142.4673 3.793701
115.8828 130.3916 2.162964
116.6562 130.5828 2.138428
117.4375 130.8074 2.176025
117.4883 129.7888 1.915405
120.3516 132.0361 2.817505
120.6719 135.5227 3.156372
118.918 128.2488 2.033325
119.1992 127.0483 2.008301
120.5234 128.6455 2.456665
118.5703 129.387 2.099854
119.3398 126.637 1.974487
118.4297 129.8606 2.100464
118.2148 130.334 2.108887
123.0273 129.9219 2.630615
125.418 139.4729 3.744629
122.1055 138.1868 3.338135
124.8555 136.6416 3.158203
129.8203 136.4646 3.053955
121.2656 141.6304 3.419067
127.168 135.7419 3.481812
133.4727 132.5906 2.021362
133.5078 136.6128 2.342285
106.7891 124.6865 1.449341
110.3555 127.7041 1.618164
106.6836 129.0579 1.836792
103.0625 122.3289 1.181274
103.7852 126.1885 1.275635
102.6172 133.3574 2.358521
103.043 133.1995 2.31958
105.9766 133.1516 2.52002
103.4766 133.0129 2.374512
102.4023 132.9126 2.299805
106.1602 131.9131 2.283081
107.082 131.2192 2.238159
109.9141 132.5725 2.821045
108.0117 130.4971 2.289551
108.8906 137.384 3.229736
109.0664 130.2771 2.216553
110.1406 130.0283 2.238281
112.6133 129.9707 2.169067
113.3203 129.8462 2.161865
113.957 129.7219 2.162476
123.2578 132.9924 2.799805
123.4062 135.585 2.834473
132.8086 121.48 2.456543
131.7773 126.301 2.134033
129.5156 125.5698 2.204712
131.2969 123.3022 2.274902
133.4766 132.2751 2.030884
133.4727 132.4326 2.025879
133.4023 132.1792 2.01001
132.9688 128.1616 1.890381
132.8945 128.1616 1.898193
133.0391 128.1951 1.94458
133.8203 127.9751 1.901245
132.9688 129.3 1.919312
132.8906 128.2239 1.864868
94.20312 121.5159 1.344727
93.70312 126.0933 1.260132
94.95703 132.0713 2.410522
98.94922 119.9473 1.209717
94.76562 117.25 1.255005
58.29688 77.21265 4.898071
95.1875 114.6477 1.891479
94.47656 115.5613 1.875732
93.78125 116.446 1.955078
93.20703 116.6663 1.975952
92.64062 116.8862 1.997681
89.66406 117.8569 2.027588
91.15234 117.355 1.981689
95.40234 114.5854 1.902344
104.6875 111.7346 1.740234
99.57812 113.552 1.778687
39.61328 88.72656 4.107666
38.07422 84.56055 4.425781
42.72266 84.6897 4.027222
38.89844 80.30835 4.784058
35.125 86.90942 4.031616
42.33594 91.37646 3.677856
41.26953 92.53442 2.357178
42.05469 92.4436 2.404053
44.8125 91.75464 2.325073
44.32031 91.65918 2.348145
43.18359 92.06567 2.328735
46.85156 83.1875 4.082275
51.28125 87.73193 2.367432
52.63672 83.34619 2.419556
52.42578 83.50391 2.437622
52.21484 83.56592 2.425781
53.70703 85.34033 2.437744
54.41406 84.74243 2.44458
55.13281 84.08228 2.484131
55.19922 83.51343 2.462524
53.0625 86.47412 2.376709
45.07031 74.38696 4.755981
40.08984 74.77954 4.665161
34.27734 76.14233 5.427368
48.07031 74.55884 4.910889
60.41016 72.46313 5.38916
52.65234 67.99194 4.593506
50.62891 69.03931 4.965332
50.88672 66.66235 4.69165
51.37891 71.65552 4.680664
55.44922 69.59888 4.155273
50.30078 73.9231 4.536255
52.83203 61.36743 4.931641
54.67969 62.44824 4.95874
64.42969 64.67651 4.499756
66.07422 63.25122 5.259033
53.45703 63.73511 4.794556
55.49219 63.89282 4.575684
54.55859 65.30884 4.473022
54.77734 67.42773 4.513428
52.79297 65.74902 4.582031
58.55859 62.29517 4.712769
34.125 82.02588 4.60083
32.79688 89.22461 3.507568
30.56641 89.8606 3.88269
56.51172 62.32373 4.832886
110.7461 62.42749 2.610107
110.4609 62.58545 2.635376
110.957 62.26953 2.592651
111.1602 62.17383 2.541382
111.3086 62.04932 2.593262
109.8906 63.08765 2.585083
112.1641 61.86279 2.604248
109.3203 64.88574 2.559326
109.4648 65.23486 2.597168
109.2109 65.78027 2.893799
109.5352 65.55054 2.580322
109.6016 65.86621 2.563965
110.5977 66.09106 2.578979
110.9492 66.24878 2.537354
110.3633 66.08057 4.382935
110.0938 65.96216 2.541016
104.4648 132.7927 2.308716
105.4531 132.6062 2.305054
100.3516 134.6155 2.401489
100.4922 134.6155 2.386353
100.6445 134.5867 2.466431
105.8086 132.2905 2.277954
101.6289 133.9556 2.381958
100.1406 134.52 2.395142
117.8594 130.5537 2.107788
114.9453 130.0713 2.111938
111.4141 129.9995 2.200684
73.10547 132.5459 2.602173
75.08984 131.1924 2.560791
64.17969 134.23 2.793457
64.53125 134.23 2.756836
64.8125 134.1677 2.760376
56.87891 134.938 2.937256
56.59375 134.4934 2.88623
131.9531 88.04785 2.40332
57.10156 135.3828 2.99646
57.39062 135.9519 2.980469
57.67578 136.4924 3.061157
69.75 125.2954 2.441772
68.48047 124.6929 2.498901
68.40625 124.6597 2.444214
71.02734 125.9314 2.447266
74.87109 130.1162 2.520508
57.01172 134.1777 2.851318
57.37109 133.8621 2.822754
58.28125 133.1685 2.778931
63.25391 134.3208 2.761108
72.73438 125.0513 2.421143
53.72266 124.1433 2.576294
55.34766 124.7795 2.545654
54.42969 124.4307 2.589355
60.60547 126.5969 2.541138
67.08594 134.2056 2.741821
57.63672 138.7446 3.378906
38.10156 135.8469 4.66687
57.87109 135.3828 2.915405
88.70312 104.384 1.675171
89.02734 118.1394 2.022949
130.7422 100.6609 1.677246
89.91406 91.77124 2.401245
88.91797 84.09009 2.386353
131.4609 84.19287 2.444214
47.38281 91.7019 2.405396
130.0664 106.9358 1.338501
130.5352 76.44971 2.455322
31.04406 61.33857 3.841148
34.25031 64.85027 1.510093
33.49298 67.43616 3.965662
30.88219 64.27604 2.948328
63.90672 132.1347 1.834956
67.36469 133.1386 2.408317
66.14449 129.6582 2.459219
66.57932 125.1465 2.797593
70.0851 129.3652 3.200181
50.84464 137.3338 2.99635
48.76385 137.744 3.19667
48.56293 135.3534 3.61842
46.9797 136.912 3.670914
51.32779 134.2167 2.970712
49.97941 139.4862 2.80397
49.16457 94.11559 1.446995
52.35448 93.97498 1.400117
50.74269 89.55315 0.9194018
54.62594 90.01409 1.931483
50.96289 96.37338 1.599339
46.34701 89.52189 1.842013
55.28607 95.50623 2.394867
55.28607 95.08435 2.350921
55.83123 94.77576 2.587981
55.31952 94.65858 2.368499
53.26803 98.2015 1.754979
55.41498 93.95546 2.322478
55.48188 93.30703 2.379606
56.91714 100.1859 2.489718
56.13274 97.84604 2.425874
58.4093 101.0023 2.817232
45.6367 141.7127 2.565328
44.656 141.7908 2.538718
44.98607 140.1971 2.837911
44.5891 142.3611 2.474266
46.55489 141.6385 2.624654
46.77511 141.7869 2.601582
75.95927 136.7206 2.814929
77.13481 133.5605 3.780867
72.2235 134.1738 3.357166
80.3203 136.3925 3.888777
75.70905 129.67 4.303326
80.8069 124.8888 5.235568
81.52513 131.3496 4.560158
42.88184 142.7166 2.467676
42.85303 142.7791 2.569727
42.88184 142.783 2.475
42.81983 142.7166 2.500879
42.43703 143.3572 2.453273
42.99171 141.0564 2.797386
41.53299 141.9783 2.716334
40.94462 140.1111 2.918603
43.54688 142.365 2.474022
44.14941 142.0017 2.512596
37.48547 135.3807 4.048241
40.56182 137.3533 3.560324
38.14169 139.1658 3.124904
34.35366 138.033 3.119047
41.07257 133.8456 4.446185
48.4013 143.3806 2.213399
49.07561 141.3807 2.36342
45.8102 64.37373 1.336375
48.35973 65.95185 1.172678
48.65122 63.11594 1.118964
53.23295 64.17064 1.251285
45.39394 66.4948 1.382032
45.97744 62.37376 1.437936
57.87273 86.41649 2.376179
58.03093 86.27587 2.357014
57.93498 86.07275 2.306355
60.94275 87.83445 3.768023
57.92522 90.7016 3.525353
58.12637 86.20556 2.37801
55.49141 90.18597 2.368128
56.69672 88.27584 2.321861
58.47549 85.77978 2.386554
58.7626 85.4165 2.435137
62.35413 82.60404 2.857128
60.24916 90.99067 4.153281
34.36994 61.50265 0.9318429
82.7854 113.7795 6.865194
77.80719 114.8967 6.369595
79.50909 110.096 6.797445
74.41104 105.5023 5.925498
81.81889 104.9242 7.422072
88.72456 104.5023 7.996772
85.69284 109.8069 7.534744
82.53271 118.4592 6.285365
73.05505 124.6817 3.762308
69.65398 121.1388 3.776224
68.89349 121.1466 3.703959
69.53923 119.9747 4.038675
70.38589 121.1192 3.943216
48.70511 96.51791 2.19065
49.26955 98.36163 2.240944
46.18855 95.94759 3.572488
48.14066 94.7484 2.147681
49.64283 98.66242 2.071145
49.29836 98.79132 2.190652
49.29836 99.27959 2.241922
46.98295 103.2092 3.42369
47.1983 92.55311 2.1041
46.28939 90.3539 2.121921
69.65767 110.4397 4.905121
66.77415 115.1427 4.056617
64.78493 110.6428 3.610814
72.15421 115.3459 5.442232
62.07819 109.3811 2.763891
61.95367 108.467 2.734716
60.38997 108.5178 2.215675
61.76715 107.5452 2.738377
66.08961 104.4593 4.349211
74.56409 111.3459 6.378017
70.96188 98.03358 6.036456
64.43439 96.66638 4.181725
68.58546 90.75631 5.02339
68.39369 142.9198 1.916138
72.55429 139.3339 2.270745
77.36551 140.494 2.693593
63.6965 140.287 2.000857
67.95767 137.6581 2.645015
82.64056 141.2323 3.78917
88.28893 142.9394 3.736553
96.77055 116.2795 6.741282
100.2808 108.2953 7.065734
105.3559 113.428 6.152282
63.02124 128.584 2.503532
61.42897 131.1582 2.34631
88.52342 86.38141 6.760916
90.26486 82.89709 5.452073
93.45035 87.6236 5.759203
99.0992 90.45561 5.825241
93.91396 93.79931 7.126762
84.80692 87.67435 7.294124
85.21367 83.12363 6.675589
84.00447 73.8542 4.33708
79.99571 79.13928 6.094413
78.98695 73.20576 4.481982
52.45551 111.9045 2.428576
52.32636 113.4591 2.50182
50.92917 108.6662 2.832261
49.4995 113.6818 3.086173
55.27749 113.174 1.842149
52.5561 110.342 2.452012
52.54168 115.0958 2.476674
