# .PCD v0.7 - Point Cloud Data file format
VERSION 0.7
FIELDS x y z
SIZE 4 4 4
TYPE F F F
COUNT 1 1 1
WIDTH 1796
HEIGHT 1
VIEWPOINT 0 0 0 1 0 0 0
POINTS 1796
DATA ascii
112.5312 33.45239 3.415771
110.5 32.55737 4.355713
112.0547 31.23242 4.263428
111.1953 37.00146 2.846924
110.9102 37.31738 2.867676
110.6328 37.63306 2.887451
110.5586 37.79053 2.890259
110.4883 37.94873 2.893066
111.1133 39.31689 2.087036
113.4727 34.51416 2.903564
114.1133 34.32764 2.937012
113.8359 31.83105 2.946167
111.5469 36.21216 2.833862
107.9531 33.9209 3.725342
114.8242 31.96021 2.93335
115.1719 32.11792 2.891724
115.668 32.05566 2.873291
115.5273 32.21387 2.883423
113.2031 29.54468 3.684937
120.0234 35.8584 1.728516
114.6055 34.4231 2.91394
122.0742 36.02124 1.666992
120.793 37.43677 1.600464
120.3242 39.0249 1.920166
122.5703 38.51758 1.634888
119.1562 37.6709 2.210327
118.6484 39.27808 2.121094
109.1289 42.65015 2.831909
109.9102 43.31494 2.793335
109.0273 42.32495 2.53418
110.6875 43.97998 2.755249
110.6172 43.97998 2.762573
109.4023 44.26611 4.026001
129.0508 35.34106 2.507935
130.4727 36.54614 2.512939
128.8242 36.85254 2.360229
117.8789 27.22949 2.912109
117.0234 27.51221 2.929932
117.0195 27.95215 2.853882
127.2695 35.31299 1.743896
126.6719 32.76367 2.137573
125.3359 34.10278 1.633911
124.6211 32.16064 2.275635
124.3359 27.50195 2.890625
125.1211 27.15771 2.91394
132.5117 35.59912 2.32666
118.9219 32.92651 2.059448
115.6016 32.94043 2.885376
118.418 31.24756 1.97229
117.2344 32.35718 2.222412
120.207 31.44849 2.158813
116.6016 28.20532 2.922119
116.5273 28.20532 2.929932
116.1016 28.74097 2.927002
116.6484 30.2959 2.028564
115.6797 29.21484 2.957397
115.2266 28.68823 3.370117
116.6719 28.14307 2.948486
114.2578 30.15698 2.920044
114.1133 30.94629 2.911621
114.8477 30.52539 2.497314
113.8945 31.73535 2.910522
114.6719 29.84131 2.885132
115.0352 29.55908 2.919556
119.4219 40.73218 2.05957
118.4258 42.43506 2.049927
120.3477 42.34839 2.135498
120.2227 26.79419 2.900269
119.7188 26.60327 2.895508
120.6484 26.92334 2.946655
120.7227 26.13428 2.962891
118.5898 24.95801 2.937256
119.7891 26.12939 2.901733
119.8672 25.59375 2.941772
115.3867 29.40137 2.886963
120.3594 25.59375 2.890015
120.7891 25.6272 2.907104
114.3945 31.83105 2.887085
119.0391 29.40137 2.502197
121.3555 27.33472 2.89209
122.9883 28.38232 2.879272
122.6406 25.12964 2.980835
128.082 31.45752 2.695435
132.0391 38.35425 2.580078
134.0781 37.78491 2.349976
172.2969 37.68701 2.488037
173.0078 37.08911 2.494873
172.582 37.40503 2.530273
170.1133 33.70288 2.615479
133.7461 40.19067 2.535767
129.9766 38.66016 2.470825
126.9727 41.20508 2.297852
129.2188 40.73145 2.075073
164.4023 45.38745 3.026001
162.3203 44.2063 2.835449
162.457 46.19604 2.793335
162.4102 42.42261 2.339966
162.7578 42.26514 2.307861
163.3945 41.94873 2.25
163.1133 42.04492 2.307983
162.1328 42.67603 2.392944
162.2734 42.58081 2.350098
161.7734 43.21191 2.383301
160.3945 43.45142 2.076782
161.3555 43.78125 2.441895
148.6211 46.23071 2.216797
160.7148 44.22119 2.432861
160.6562 44.19238 2.534912
160.7188 44.15918 2.466064
161.0742 44.00098 2.433472
159.3789 44.75659 2.525146
160.0781 44.50317 2.427734
149.4492 44.58545 2.051514
154.9219 48.32031 2.761108
153.4297 47.96655 2.707153
147.7734 47.65112 2.26355
146.793 46.23071 2.40918
157.2539 46.36377 2.606445
158.5 47.20093 2.989258
157.6797 46.08179 2.633545
158.2461 45.6084 2.588013
155.7539 50.33838 2.549683
150.1602 49.85083 2.676758
150.3711 49.75537 2.626099
150.5859 49.63086 2.670654
150.6562 49.63086 2.66333
147.7734 49.73633 2.265015
164.1562 47.62134 2.730835
170.3477 44.04321 2.884277
173.6055 42.34546 2.814331
174.3867 43.62256 2.122192
173.3008 43.09644 2.601685
165.7031 46.92773 2.619507
157.7539 49.05176 2.631836
157.4023 48.9895 2.702637
158.1094 49.08521 2.657227
156.1328 48.86035 2.744751
155.7109 48.51147 2.736694
155.2812 48.19604 2.790649
158.4609 49.24292 2.614624
158.8203 49.43433 2.63501
156.7656 48.9563 2.706543
159.3828 49.59204 2.570923
159.957 49.72144 2.602539
163.668 51.83545 2.116577
165.3555 51.86865 2.000854
164.1797 49.94629 2.27771
162.8516 49.72583 2.456177
163.6211 49.5061 2.41333
165.75 49.66846 2.343018
165.3242 49.00342 2.343506
165.8906 48.56372 2.360474
166.1758 50.271 2.374756
166.1094 50.30444 2.444092
167.7461 49.42432 2.425293
166.1719 50.33325 2.341553
164.7539 49.22388 2.365723
164.1914 49.38184 2.420288
163.9023 49.44385 2.41687
155.6289 53.16553 2.001953
149.5156 55.97778 2.656616
149.5898 55.75781 2.687012
149.7422 56.36035 2.749146
149.4492 56.19775 2.62561
150.3711 52.66333 2.665405
146.6719 52.01782 2.598389
149.8711 56.3894 2.63916
149.8672 56.45166 2.605957
151.9766 56.65259 1.709961
149.8008 56.54688 2.641968
151.0039 57.98218 1.900513
149.875 56.16919 2.677002
149.8672 56.29346 2.610474
149.2305 56.51367 2.639038
149.0195 56.8291 2.652466
147.5156 57.70459 2.498413
143.4961 57.52319 2.132935
143.5273 55.09814 2.393677
141.4727 56.76782 2.432861
149.7305 55.97778 2.634155
151.1484 51.18018 2.659668
150.8672 51.87427 2.638184
149.5156 50.1333 2.673096
149.8711 49.97534 2.640015
144.8633 50.04272 2.244629
149.4492 50.82666 2.628174
146.0586 47.99072 2.17981
152.0078 50.45825 2.718506
151.5039 51.02271 2.627563
151.8633 50.83618 2.690796
143.9336 47.73267 2.221436
142.2344 49.24414 2.228027
142.5 51.42041 2.071533
140.3906 50.59766 2.254761
140.668 52.68335 2.226929
144.3398 52.64453 2.667603
141.0586 54.65332 2.570801
142.4805 53.30005 2.589355
145.6406 56.49023 2.224243
139.4258 56.13159 2.509033
139.0469 54.10327 2.354248
122.0078 52.28223 2.393433
121.6914 53.71216 2.702026
121.8945 54.02783 2.671021
121.5625 54.34839 2.855957
122.0391 54.28125 2.680176
128.4062 54.19995 2.456177
130.1172 52.94214 2.4729
137.4258 55.27075 2.45874
137.6406 57.60986 2.461914
120.125 52.98071 2.698608
120.9023 53.32959 2.669556
119.9883 53.07617 2.741943
125.4141 50.14404 2.384399
126.1875 52.03833 2.246704
135.668 54.4917 1.936646
135.7383 56.27979 2.575195
129.8125 54.98926 2.28479
128.6367 56.17529 1.929199
119.9805 54.55908 2.666626
119.9102 53.92749 2.692505
119.6953 55.34839 2.672852
120.0547 55.12817 2.673584
122.1797 55.0083 2.675171
121.8945 55.54419 2.657715
122.8047 55.60645 2.528198
121.5469 56.01758 2.680786
121.4023 56.07983 2.662109
131.4883 54.86011 2.017212
118.4609 53.85156 2.402832
117.8281 55.20947 2.460938
124.125 55.28613 2.239868
132.4648 52.88916 2.576538
133.7539 55.05591 1.994751
134.8594 52.57349 2.333618
115.4023 51.20605 3.026489
113.2422 51.5354 4.769531
113.3008 50.03931 3.315063
131.3281 50.73682 2.569824
133.1953 51.15747 2.710327
133.1133 50.96631 2.660522
133.0547 50.74634 2.706177
133.3398 50.71753 2.771606
114.6836 53.49683 3.637329
133.332 50.99976 2.700562
133.4727 50.8418 2.690552
133.5508 50.71753 2.749146
133.5469 50.77954 2.715942
135.0117 50.55518 2.44165
108.9844 42.30103 2.794067
109.0547 42.45898 2.782227
108.3906 42.09912 4.578125
125.457 43.14185 2.780396
125.1758 43.36182 2.771973
124.1836 44.43359 2.781372
125.6758 42.92188 2.796265
122.8086 43.50586 2.541138
121.2266 43.81201 2.380127
122.4297 44.82593 2.350098
124.6719 43.802 2.748169
124.1094 44.18018 2.764893
123.8516 42.44849 3.003174
123.0938 46.72925 2.54126
111.7305 42.37817 1.898682
111.6172 44.14209 2.810791
112.2539 44.23804 2.773193
113.0391 44.49609 2.873169
112.8945 44.30469 2.830322
113.0352 44.30469 2.815674
114.0078 42.19604 1.918457
113.1094 44.30469 2.807861
123.75 43.57715 2.725342
123.3281 42.94604 2.788696
108.7109 39.42676 2.846436
108.6367 39.52246 2.882568
108.6367 39.8999 2.839722
108.5703 40.31128 2.865845
107.8242 40.69873 3.21875
108.5703 41.66992 2.856934
108.7773 41.98535 2.825562
108.5625 41.00513 2.813965
110.2734 38.16846 2.877319
115.1211 40.20166 1.67041
110.7383 40.79492 1.892578
112.7656 40.09644 1.572266
117.3086 40.77539 1.612915
125.0352 41.27661 2.785645
122.1641 42.17627 2.521606
117.4297 43.75977 2.08313
116.9023 42.61206 1.791748
115.7695 41.97607 1.771606
123.2539 42.69238 2.771851
123.1836 42.37671 2.788696
121.4219 40.52148 2.203857
123.3203 40.66919 2.729858
124.9648 41.37256 2.822266
125.1094 41.68799 2.797607
125.25 41.94141 2.806641
123.5469 41.36768 2.812988
124.2578 41.40088 2.800781
123.3984 41.90332 2.780273
125.6758 42.85962 2.829468
125.6133 42.89307 2.898315
127.3867 43.44849 2.250244
125.457 42.41479 2.770752
122.1094 54.65942 2.630005
128.7227 42.46777 2.075195
128.2695 48.76636 2.506714
130.2305 42.47705 2.234009
131.5156 40.96558 2.271362
147.5469 44.67627 2.122192
130.2969 48.6377 2.20105
129.0117 46.76733 2.138428
145.1523 46.47461 2.289795
139.9102 48.42139 2.434204
143.2891 45.42261 2.167358
141.6523 47.09204 2.163208
122.8672 49.79053 2.441772
134.332 48.9812 2.719238
126.9961 47.27905 2.558105
126.6641 48.80005 2.739136
126.5977 48.83325 2.807983
126.6641 48.89551 2.767334
126.6602 48.8623 2.705811
118.0195 51.9812 2.251343
116.6367 53.6936 2.60022
119.9102 53.04297 2.687256
119.9141 52.98071 2.720581
119.9141 53.13843 2.716064
119.9102 53.51611 2.67334
133.1914 50.27295 2.705078
133.4766 50.21069 2.708984
133.6953 50.08643 2.753052
133.1172 50.49292 2.674683
130.4727 56.4624 1.821533
133.6289 50.40186 2.751465
126.6055 48.86694 2.869995
126.5938 48.89551 2.774658
133.6211 42.57764 2.064575
135.4336 47.77612 2.44812
116.6172 47.2749 2.444336
120.7969 45.76831 2.335205
125.3125 46.74341 2.782593
125.8086 47.15479 2.75061
125.0703 48.11133 3.117676
126.3047 47.50366 2.750854
123.8203 47.27441 2.733765
124.6016 46.99219 2.723267
126.5156 48.13501 2.709839
123.8867 48.15918 2.731689
123.8906 48.98218 2.77063
125.9492 48.98682 2.713623
125.2422 49.11108 2.720703
124.6055 49.07739 2.724609
116.4414 51.51709 2.748901
116.3594 52.27295 2.671631
116.2891 52.99976 2.688721
119.9258 52.95166 2.815918
119.9844 52.98071 2.713257
120.0547 52.98071 2.705933
115.3008 48.16455 2.747437
115.7969 48.51367 2.748169
116.2969 48.86304 2.748901
114.7461 48.54712 2.921021
113.1719 44.36694 2.767212
113.25 44.40039 2.821899
114.8086 47.81567 2.746704
115.0859 47.97314 2.712402
121.4141 56.05103 2.757446
122.3672 57.33765 2.36377
120.5117 57.55322 2.362061
110.6836 44.04199 2.721924
110.6914 44.0752 2.783447
110.9688 45.7063 3.404541
113.3164 44.62036 2.776855
113.3945 44.81201 2.826538
113.5312 45.75879 2.783325
113.6719 46.64355 2.773926
112.7695 46.96387 3.017334
110.1758 46.24585 4.647339
111.1875 44.10889 2.793701
111.2109 47.73853 3.730835
112.4922 48.73364 3.057495
111.9141 49.52686 4.302002
116.4375 53.66504 2.716919
116.4297 53.78931 2.650513
116.4336 53.88477 2.679199
115.5586 54.65454 3.161255
116.5 54.61182 2.682129
116.7109 55.08521 2.64563
116.3711 55.78369 2.78772
116.9297 55.53027 2.704834
117.0078 49.87646 2.770142
116.7188 50.72827 2.743652
116.5039 49.17871 2.717407
116.6484 49.43188 2.726562
116.8633 49.6853 2.727783
114.2344 47.21265 2.729004
116.3594 53.31543 2.671875
114.3984 55.8645 3.596924
114.3359 64.21143 1.669556
113.3438 62.26953 2.340698
111.9883 64.29785 1.628906
109.8477 64.40283 2.200195
111.082 62.45605 2.478149
113.3867 58.28955 3.440308
111.3203 58.80591 4.024048
112.3516 56.73462 4.390015
114.6289 60.27441 3.122803
112.2891 60.4563 3.109863
115.6758 57.9978 2.953613
120.543 55.53931 2.641479
120.9727 55.88843 2.649048
121.1836 55.98438 2.655884
118.0625 56.76392 2.643921
118.6992 56.38599 2.619751
118.1445 57.39966 2.774292
119.2656 55.94604 2.63623
117.4883 56.16138 2.626709
121.4844 56.05103 2.750122
121.4727 56.07983 2.654785
116.4961 54.2627 2.629639
117.2539 60.40845 3.096436
118.9844 56.73511 2.642944
118.707 57.46191 2.682007
118.3516 57.68237 2.681396
118.3438 58.84912 2.61499
118.3438 60.0498 2.611206
118.5586 57.58643 2.630127
123.6016 58.24658 1.984131
125.4688 56.14185 2.199707
123.9141 56.802 2.248413
126.9727 63.25879 2.30481
127.957 62.15405 2.234375
125.5469 61.86255 2.24231
125.2188 58.02686 1.851929
127.0234 59.8103 2.148193
124.3867 59.73438 1.984497
127.0781 57.30933 1.963501
129.3047 58.36597 2.205566
129.5898 60.95801 2.224609
131.4492 59.9248 2.345581
123.918 63.15381 2.280396
123.1133 61.4082 2.099976
118.9219 61.86768 2.051025
118.2031 60.52319 2.611816
117.9883 60.99683 2.620239
110.668 66.03857 1.874634
113.0859 66.20581 1.932251
115.6406 62.06348 2.613037
115.4336 62.06348 2.634521
115.8594 62.00122 2.623779
114.6445 61.83887 2.598022
113.7969 61.55176 2.600098
120.0977 66.14819 2.434814
116.5664 61.93896 2.582886
117.2773 61.9104 2.60437
117.625 61.43677 2.581787
113.3672 61.61401 2.611328
112.9492 61.61401 2.655762
113.7227 66.82764 2.577637
114.4336 66.70312 2.569946
115.4492 66.06226 2.163574
115.1406 66.57861 2.562744
114.5312 67.77393 3.512329
117.8711 65.81812 2.201904
104.6797 66.47314 4.36731
118.8125 67.9751 2.387939
120.8828 67.88867 2.457886
116.3477 67.2146 2.574951
116.7695 67.15234 2.564331
117.1289 67.09009 2.560059
116.7227 67.82178 2.770874
111.2344 66.43994 2.565063
112.0117 66.47339 2.545532
112.8047 66.54028 2.587036
112.2148 67.14233 3.775024
115.7773 66.92773 2.548828
113.2891 66.69824 2.53125
119.7539 69.87817 2.549194
119.9688 69.81592 2.560059
120.75 69.37622 2.554565
121.5312 68.93628 2.549438
119.8945 69.87817 2.534058
117.5547 67.50146 2.53479
117.9062 67.85059 2.550659
118.2578 68.104 2.537354
118.6211 68.29541 2.557251
119.1875 69.11816 2.536499
119.6953 69.84985 2.652344
119.6836 69.87817 2.556519
119.8281 69.97437 2.570679
119.8359 69.84985 2.637207
119.8203 69.94043 2.508179
125 74.37891 2.465454
124.5742 74.91455 2.462158
122.0234 70.70581 2.508179
121.7383 71.43286 2.547119
124.7852 72.60913 2.477539
122.3086 71.68628 2.512329
122.8047 71.87769 2.517578
123.2891 72.0354 2.461304
125.0742 74.22095 2.462769
125.2891 67.36719 2.51709
125.082 67.46313 2.568848
127.2812 67.08984 2.53894
125.9258 68.75879 2.504395
124.9375 67.20923 2.559692
125.2227 67.20923 2.529907
125.5547 65.49707 2.29187
125.0078 67.42944 2.513672
124.8711 67.36719 2.561523
14.20312 108.8022 2.943115
125.5078 67.24268 2.561646
125.6211 63.82324 2.302856
127.25 64.8374 2.228394
128.3633 63.76099 2.047607
129.7188 68.44336 2.114014
131.5469 68.91699 1.908081
131.543 67.20923 1.863892
121.8789 69.03174 2.541138
122.9414 67.57788 2.409424
122.168 69.06519 2.573364
124.8633 67.33374 2.5
124.8672 67.27148 2.533325
124.9336 67.27148 2.526489
30.96875 106.0225 2.276733
127.5703 69.50513 1.927002
122.5234 69.22314 2.53125
132.957 68.69653 1.796997
130.9844 70.37085 1.986572
132.3789 70.02148 1.786621
134.0273 70.56665 1.882568
134.8086 68.51489 1.861572
133.5234 66.80273 1.793945
132.043 64.84204 1.882324
129.5 65.59741 2.063843
129.8672 63.26343 2.157959
131.7422 62.23511 2.436157
135.9766 71.97266 2.206421
145.7578 71.20703 1.993408
144.1484 71.24048 2.22583
132.25 71.66699 1.878174
130.4727 72.10229 1.829956
146.1758 69.27979 1.944092
144.5156 69.79126 2.325562
150.0781 67.39478 1.906616
161.6055 65.28931 2.152344
160.3477 62.73071 2.29834
158.9609 64.64429 1.973999
146.2383 63.20996 1.833374
145.2695 65.39575 2.123291
144.2461 66.92163 2.5354
144.2578 66.89258 2.630127
144.3203 66.92163 2.527588
147.3164 60.46924 1.991211
143.7695 63.74585 2.0448
139.9336 60.60376 1.971802
135.8594 62.27734 2.382202
137.5312 60.88599 2.152222
133.5156 61.10132 2.379028
135.3008 59.7522 2.517334
132.3398 56.69653 2.062256
135.9414 58.11206 2.530396
136.9023 59.27417 2.203247
138.2969 59.39844 1.98877
139.7539 58.27441 2.282715
141.668 58.88159 2.317017
143.2812 59.32153 2.070557
145.207 58.76196 2.170288
149.375 56.76709 2.648682
149.6562 56.70483 2.652588
149.7266 56.60913 2.616089
134.25 57.41357 2.603149
132.9609 58.76709 2.570312
131.3086 57.99731 2.355347
123.6406 24.24951 3.029419
124.207 24.91431 3.013306
103.3398 7.190186 3.105225
103.3359 7.252441 3.071899
103.332 7.314453 3.038696
105.2383 5.420654 2.89563
106.0586 7.974854 2.636841
157.8164 54.90625 1.878174
106.9883 63.82837 3.376831
106.4336 65.74609 4.171997
109 62.90552 2.937866
108.2461 64.77539 3.215454
108.4883 65.96069 4.806519
151.75 23.3252 2.98584
151.6875 22.6936 3.011719
151.8242 24.052 2.988159
151.8281 23.98975 3.021484
100.3984 15.59863 3.545288
97.29688 12.46606 3.712158
122.5156 82.81519 3.809204
110.8906 4.061768 3.356445
91.64844 22.0752 3.383789
68.08594 52.39966 3.497925
143.1172 114.4243 3.170532
142.4648 117.1177 2.42749
147.2344 81.31787 1.853149
157.9766 62.46313 2.04834
167.1992 68.96729 1.993042
167.1992 66.56665 2.001709
165.1289 67.75757 1.898193
164.8398 39.49536 2.45752
165.1836 39.08423 2.401611
166.1016 39.43311 2.357422
41.33984 122.9482 2.996338
40.92969 120.8674 3.196655
43.32031 120.6665 3.618408
41.76172 119.0833 3.670898
44.45703 123.4314 2.970703
39.1875 122.083 2.803955
169.4219 67.74756 2.177246
84.55859 121.2681 1.447021
84.69922 124.458 1.400146
89.12109 122.8462 0.9194336
88.66016 126.7295 1.931519
82.30078 123.0664 1.599365
89.15234 118.4504 1.842041
83.16797 127.3896 2.394897
83.58984 127.3896 2.350952
83.89844 127.9348 2.588013
84.01562 127.4231 2.36853
80.47266 125.3716 1.755005
84.71875 127.5186 2.32251
85.36719 127.5854 2.379639
78.48828 129.0208 2.489746
80.82812 128.2363 2.425903
77.67188 130.5129 2.817261
36.96094 117.7402 2.565308
36.88281 116.7595 2.538696
38.47656 117.0896 2.837891
36.3125 116.6926 2.474243
37.03516 118.6584 2.624634
36.88672 118.8787 2.601562
27.79297 119.5535 1.824463
26.59375 120.8164 1.91333
28.14062 121.3857 1.765015
41.95312 148.0632 2.814941
45.11328 149.2388 3.780884
44.5 144.3274 3.357178
42.28125 152.4243 3.888794
49.00391 147.813 4.303345
53.78516 152.9109 5.235596
47.32422 153.6292 4.560181
9.960938 157.2288 3.084229
9.890625 153.3115 3.113525
12.53516 154.7983 3.965942
10.10938 122.7734 2.511597
8.835938 125.4231 2.503174
11.49609 125.4854 2.189087
9.648438 127.6904 2.158569
7.628906 123.6201 2.556763
13.82031 122.7065 1.995972
4.636719 125.6912 2.397827
2.65625 126.2888 2.524292
4.328125 127.5806 2.214111
2.878906 128.188 2.603394
2.972656 123.5818 2.826172
5.753906 126.9539 2.242065
24.55859 121.51 2.075439
25.75391 119.1426 2.020508
34.86719 118.1663 2.233154
35.95703 114.9854 2.467651
34.52734 115.8943 2.368652
35.89453 114.9565 2.569702
35.89062 114.9854 2.474976
35.95703 114.9233 2.500854
34.67188 114.0337 2.472168
34.75 113.4023 2.483398
35.31641 114.5405 2.453247
37.61719 115.0952 2.797363
36.69531 113.6365 2.716309
38.5625 113.0481 2.918579
36.30859 115.6504 2.473999
36.67188 116.2529 2.512573
14.26953 108.769 2.873779
13.55859 109.2087 2.87207
43.29297 109.5889 4.048218
41.32031 112.6653 3.560303
39.50781 110.2451 3.124878
40.64062 106.457 3.119019
44.82812 113.176 4.446167
35.29297 120.5049 2.213379
37.29297 121.1792 2.363403
6.625 125.5093 2.446777
5.511719 123.7109 2.650391
25.79297 127.2109 2.410278
24.92969 129.1003 2.285645
27.05859 128.665 2.296875
26.41016 130.8079 2.174072
24.13672 127.4836 2.194458
27.61719 126.7041 2.169312
55.46484 88.18921 5.630371
114.3008 117.9136 1.336426
112.7227 120.4631 1.172729
115.5586 120.7546 1.119019
114.5039 125.3364 1.251343
112.1797 117.4973 1.38208
116.3008 118.0808 1.437988
92.25781 129.9763 2.376221
92.39844 130.1345 2.357056
92.60156 130.0386 2.306396
90.83984 133.0464 3.768066
87.97266 130.0288 3.525391
92.46875 130.23 2.378052
88.48828 127.595 2.368164
90.39844 128.8003 2.321899
92.89453 130.5791 2.386597
93.25781 130.8662 2.435181
96.07031 134.4578 2.857178
87.68359 132.3528 4.15332
148.3789 79.42847 1.947388
146.4805 89.07593 1.446289
155.957 94.61353 1.806396
154.2617 93.09277 1.84021
154.2656 94.48462 1.892944
154.4062 94.64258 1.873779
154.2734 94.83374 1.945923
154.5508 94.77173 1.949829
154.6914 95.14941 1.892456
155.3906 96.09644 1.790161
154.8281 95.46509 1.868286
152.9961 94.35571 1.935425
153.6328 94.45117 1.897827
152.707 94.26001 1.9375
156.2539 92.56177 1.836792
151.6914 81.58081 1.725098
150.9727 104.4189 1.625
151.8828 102.8074 1.514404
150.5391 100.4351 1.567871
151.1016 101.3198 1.51355
153.0039 100.6594 1.427612
151.668 101.8267 1.502441
152.1641 102.3335 1.498657
152.8008 105.5237 1.400024
150.4727 100.6885 1.598877
150.8242 101.0042 1.552368
169.2617 85.37256 2.016113
167.7852 83.91846 2.151001
167.6562 85.75513 2.300537
119.0938 105.5977 1.041016
117.9727 104.6506 1.187256
119.1406 107.8213 1.446289
119.2812 107.6636 1.436646
119.5078 107.9839 1.561401
119.418 107.5059 1.426514
117.1719 106.4731 0.9318848
135.6992 122.7661 2.907104
137.0898 123.8376 2.665527
135.4375 124.6797 2.4646
136.8945 125.3062 2.133423
133.6484 123.6897 2.302124
137.3281 122.2014 2.879761
137.1797 118.7869 2.807983
135.3242 119.0645 2.772095
122.375 116.1006 1.143311
120.4727 118.1526 1.282837
122.5234 118.1572 1.22522
120.457 115.082 1.090698
121.75 119.8311 1.288452
120.0508 121.0891 1.270874
132.5 117.0176 2.241089
133.4375 119.2991 2.360107
128.4648 130.3716 2.29834
125.7695 130.4912 2.356323
127.8086 127.9326 2.155029
125.3359 127.7078 2.2948
129.7969 127.937 2.10437
126.2266 133.6287 2.628052
130.9375 129.3337 2.195679
129.8008 132.605 2.885376
132.8242 128.3196 1.900024
132.8867 128.3816 1.859985
132.8945 128.4153 1.922485
132.9688 128.2573 1.918579
64.89453 154.8894 6.865234
63.77734 149.9111 6.369629
68.57812 151.613 6.797485
73.17188 146.5149 5.925537
73.75 153.9229 7.422119
74.17188 160.8286 7.996826
68.86719 157.7969 7.53479
60.21484 154.6367 6.2854
144.8047 115.7014 2.381836
7.058594 151.3892 2.515991
5.671875 147.8359 2.164917
6.101562 147.3335 2.229736
5.390625 149.6052 2.205078
2.613281 151.2368 2.099731
5.054688 151.3464 2.347412
6.28125 155.2444 2.609741
5.75 147.52 2.166626
5.746094 147.2043 2.176147
1.652344 146.105 1.750854
10.70703 146.0369 2.768311
10.01172 149.8296 2.887573
1.667969 157.4399 2.553711
87.27734 40.81348 4.998657
84.64062 41.69922 4.234009
86.01172 39.62329 4.40564
83.8125 40.41772 3.724365
82.3125 19.54102 3.077026
82.73828 19.69873 3.028076
81.83984 20.90405 3.276733
83.88672 20.9375 3.123901
83.09375 19.89014 3.047974
82.45312 19.12964 3.043213
80.85156 19.98535 3.31311
82.17188 19.28711 3.067505
82.24609 19.44507 3.055176
83.44531 19.57446 3.020386
83.80859 19.22998 3.088135
84.30078 18.75635 3.049927
84.875 18.00073 3.075928
84.73047 18.31641 3.081909
81.78125 22.64502 3.389771
69.05078 17.57568 3.199097
67.85938 18.71411 3.354004
94.46875 18.09546 3.14209
94.10547 16.23022 3.140625
22.39844 102.3416 0.4942627
24.10547 103.1067 0.5455322
24.15234 100.6238 0.9958496
22.87891 104.4309 1.651855
25.98047 102.1213 0.154541
72.59766 48.27686 2.509644
72.40625 50.11353 2.666016
73.19531 49.64502 2.755737
73.54688 49.01343 2.737183
73.89844 48.32007 2.752441
75.64844 48.30542 3.140869
74.32812 47.78418 2.755249
74.75781 47.18604 2.790894
74.09375 46.29199 2.53894
72.98047 49.96045 2.768677
74.32422 51.08862 3.387329
72.69922 50.27588 2.789062
70.33984 49.34839 2.651855
106.1055 14.5603 3.101318
105.8945 16.25317 3.740845
104.2422 15.57935 3.554199
162.6094 53.13184 2.252319
164.3203 53.38965 2.255127
161.8945 54.67627 2.217407
163.332 54.49463 2.32605
144.8555 19.0354 2.887573
142.9531 16.72534 2.967407
142.5 19.15015 2.751587
140.2148 16.95972 2.644775
127.8789 29.81665 2.797729
115.1289 22.82422 3.810181
170.1289 18.63721 2.779053
171.1172 18.7041 2.799561
169.9844 19.52173 2.79895
170.4102 17.37427 2.786377
172.0547 18.80444 2.888428
171.7578 20.88477 2.761841
168.5664 17.21167 2.827026
169.3398 17.93872 2.755615
168.0078 17.11621 2.8573
166.6055 13.86353 3.070679
166.7422 14.1792 3.046021
169.4688 15.05957 2.605835
165.9766 13.64355 3.174316
166.8164 14.43286 3.062378
167.5156 15.6958 2.951538
168.1445 16.95825 2.847168
167.4141 22.13354 2.706055
167.5391 20.6123 2.546875
170.1133 22.80273 2.624023
166.9766 20.10547 2.557983
167.293 23.65405 2.863647
166.5195 23.87451 2.90686
162.6406 20.56519 2.525269
167.3984 20.35913 2.53833
167.2656 20.07666 2.624023
169.8281 26.65771 2.665161
169.8281 26.50024 2.670166
168.5625 25.1084 2.750732
139.0938 6.805664 3.416626
138.6719 6.174316 3.480225
140.1602 6.652344 3.467651
135.125 5.026367 3.506714
139.5195 7.470215 3.415283
136.9453 10.71313 3.303345
139.7266 9.23999 3.404175
142.2227 11.21021 3.526367
139.8789 10.98096 3.495239
129.6172 9.106934 3.170898
138.5938 4.371094 3.415039
138.4492 2.539062 3.452637
100.3398 17.3584 4.293335
111.043 7.003174 3.443237
109.2109 8.213623 2.901489
111.4023 7.667969 3.449585
111.6836 8.079102 3.438599
111.8945 8.490723 3.436279
111.6523 10.09326 3.159546
95.31641 12.93481 3.747803
109.4062 10.38965 2.751831
99.85156 1.585205 3.037476
102.0273 2.42627 3.481934
101.082 3.364258 3.235962
97.94141 2.623047 3.080566
102.3867 16.60254 4.164062
101.6289 10.18433 3.037476
100.9922 10.08887 3.07605
102.1992 10.31348 3.068604
150.4727 20.03442 2.964233
148.1719 22.07227 2.669556
116.9766 22.19775 3.793091
130.5625 28.46338 2.682129
132.9453 28.20972 2.40686
131.0508 26.53564 2.625
133.1523 25.77539 2.330566
131.7617 30.51953 2.652344
129.3711 27.10474 2.816406
155.5 23.77441 2.831787
155.3594 24.09009 2.837402
156.1094 24.77881 2.546753
155.6445 23.23901 2.863892
155.5664 23.521 2.800171
155.2227 24.40576 2.842529
155.3828 22.20093 3.050293
157.0312 35.80811 2.532227
157.3789 36.02832 2.457764
154.4922 37.573 2.652466
157.6641 36.21948 2.485107
157.5938 35.39697 2.453857
158.0977 39.3186 2.537476
154.8398 41.27026 2.631104
153.4141 33.61768 2.565918
153.5547 34.09131 2.537231
155.3242 34.98071 2.514771
159.0859 36.91797 2.442139
160.7148 37.33374 2.44812
160.4297 37.55371 2.439209
148.3086 43.03101 1.964722
106.0859 63.39697 4.914307
108.0664 61.73804 4.151611
171.2617 80.12524 2.787964
170.9062 81.76562 2.744751
169.9766 80.18262 2.731201
171.0039 46.52612 2.359741
171.3359 48.92212 2.157104
169.2812 48.03247 2.210571
169.6289 50.33813 2.135986
171.5469 51.16528 2.131592
171.4766 50.59619 2.124634
171.1172 49.99341 2.085083
170.7656 49.42432 2.107422
173.1758 47.72632 2.126343
163.168 66.96826 2.128174
161.4219 67.70996 1.749512
163.125 68.66162 1.70105
26.40234 125.4031 2.113647
24.56641 125.8096 2.167969
53.99219 145.1589 3.762329
57.53516 141.7578 3.776245
57.52734 140.9973 3.703979
58.69922 141.6431 4.038696
57.55469 142.4897 3.943237
82.15625 120.8086 2.190674
80.3125 121.373 2.240967
82.72656 118.292 3.57251
83.92578 120.2441 2.147705
80.01172 121.7463 2.071167
79.88281 121.4019 2.190674
79.39453 121.4019 2.241943
75.46484 119.0864 3.423706
86.12109 119.3018 2.104126
88.32031 118.3928 2.121948
23.69531 131.4585 2.027466
22.27734 128.675 2.06897
19.85938 131.7932 2.007935
22.99219 126.499 2.122925
68.23438 141.7615 4.905151
63.53125 138.8779 4.056641
68.03125 136.8887 3.61084
63.32812 144.2581 5.442261
69.29297 134.1819 2.763916
70.20703 134.0574 2.734741
70.15625 132.4937 2.215698
71.12891 133.8708 2.738403
74.21484 138.1934 4.349243
67.32812 146.668 6.378052
80.64062 143.0657 6.036499
82.00781 136.5381 4.181763
87.91797 140.6892 5.023438
22.64062 148.667 2.830322
22.32812 145.687 2.539429
19.96094 147.146 2.967651
20.12109 150.312 3.173828
22.97656 151.2832 2.589966
21.80078 153.311 2.907349
24.91797 150.4556 2.186768
28.41016 150.8811 2.315063
25.75781 153.8994 2.091431
23.57812 156.2046 2.282959
19.91016 150.7856 3.181763
20.12109 151.8906 3.126709
20.33203 153.0288 3.134155
18.94531 152.78 3.414673
20.25781 153.5645 3.094238
20.18359 154.0381 3.087524
20.03906 154.478 3.026123
19.82812 154.8894 3.067383
20.16797 155.645 2.94519
19.54688 155.0139 3.03064
19.1875 155.0759 3.034424
17.03906 150.8525 3.609009
19.70312 150.3743 3.18457
19.83594 150.5942 3.131592
19.75781 144.4438 2.433716
17.23438 145.3289 2.706055
15.54297 149.2024 3.530029
17.50391 148.2842 3.255859
17.52734 141.0483 2.16748
17.41406 147.7104 3.092163
17.77734 147.9014 3.112061
18.06641 148.0305 3.172607
35.75391 140.4976 1.916138
34.57812 145.7156 2.200928
39.33984 144.6582 2.270752
38.17969 149.4695 2.693604
31.30469 142.5444 2.164062
38.38672 135.8003 2.000854
41.01562 140.0615 2.64502
3.675781 143.7512 2.084839
6.777344 143.2058 2.536743
4.742188 145.4924 2.079224
4.261719 141.8623 2.238159
37.44141 154.7446 3.789185
33.29297 150.627 2.824341
31.50391 155.1995 2.717407
35.73438 160.3931 3.736572
19.03906 158.8975 2.998901
25.63672 147.1748 2.273682
24.35938 144.042 2.247681
10.16406 142.2302 2.304565
7.324219 140.4844 2.338501
7.1875 141.3071 2.391602
7.753906 142.0676 2.404297
8.257812 142.7659 2.45752
10.47266 144.3867 2.556519
9.398438 143.5593 2.472168
5.328125 140.8865 2.25061
5.535156 140.8865 2.228638
6.390625 141.1111 2.258911
9.609375 139.6426 2.472046
62.39453 168.8748 6.741333
70.37891 172.385 7.065796
65.24609 177.4602 6.152344
4.925781 136.3857 1.824097
2.027344 134.8315 1.921875
2.46875 137.6821 2.10791
3.316406 140.1165 2.072876
5.09375 138.9209 2.048462
4.320312 140.437 2.116211
5.328125 140.7908 2.222412
2.410156 141.5706 2.187988
50.08984 135.125 2.50354
47.51562 133.5327 2.346313
30.03906 146.7776 2.266357
21.80078 142.55 2.276001
27.39453 143.5732 2.100586
29.46484 136.7576 2.182007
28.42969 139.9238 2.513672
31.79688 138.6274 2.134277
25.96484 137.0779 2.699951
31.78906 136.0017 2.023438
92.29297 160.6274 6.760986
95.77734 162.3689 5.452148
91.05078 165.5544 5.759277
88.21875 171.2034 5.825317
84.875 166.0181 7.126831
91 156.9109 7.294189
95.55078 157.3176 6.675659
104.8203 156.1084 4.337158
99.53516 152.0996 6.094482
105.4688 151.0908 4.482056
66.76953 124.5591 2.428589
65.21484 124.4299 2.501831
70.00781 123.0327 2.832275
64.99219 121.603 3.086182
65.5 127.3811 1.842163
68.33203 124.6597 2.452026
63.57812 124.6453 2.476685
61.94531 124.894 2.51355
59.23828 122.9426 3.04834
74.99609 124.1091 2.369629
74.36719 124.1711 2.402832
75.62891 124.4868 2.26001
75.64062 123.9846 2.369263
75.50781 127.811 2.490967
76.35547 126.5481 2.439697
71.65234 127.6343 2.267212
74.58984 129.0732 2.549561
92.29688 175.8618 4.811279
85.26172 177.0576 5.389404
100.0859 164.4739 4.585693
100.0977 158.968 5.384033
104.207 161.7812 3.914673
15.47656 160.873 2.870728
13.34375 157.6636 3.540283
24.96094 141.0525 2.591797
19.11328 155.1382 3.008423
19.04297 155.2339 3.044556
19.03516 155.5159 2.973022
18.97266 155.7693 3.00415
14.58984 155.4343 3.888794
11.29297 161.3372 2.979126
16.33984 164.7661 3.012451
13.48828 164.374 2.879761
6.152344 161.3757 2.694092
19.15234 163.25 2.72937
22.01172 162.0303 2.846191
22.98438 166.0715 2.654663
19.14062 167.7651 2.62793
22.15625 162.0637 2.893555
22.63281 164.0198 2.75293
26.05469 163.5271 2.820312
23.05469 166.0093 2.681152
26.85156 166.1907 3.068481
29.01953 165.8892 3.326294
32.69141 166.2332 3.881958
27.67188 168.8879 3.378662
31.17969 165.6211 3.646973
19.74609 156.9409 3.014526
19.95312 157.9504 2.930786
23.02734 159.1462 2.444458
20.08984 158.9597 2.854736
21.08594 160.4468 2.832764
22.01172 161.968 2.879517
19.39453 156.3386 2.974365
33.20703 180.1326 2.681763
38.79688 177.4155 3.158325
32.5 173.3074 2.737061
33.38672 167.6204 3.704224
32.67188 167.6489 3.682129
37.85547 171.5515 3.687744
34.03906 167.625 3.794067
63.54297 160.5098 6.871216
68.95312 164.7512 7.635132
58.07812 162.5906 6.240723
57.58594 161.3569 6.234741
56.71484 161.4763 6.099365
58.51953 163.7957 6.348877
58.44531 163.7625 6.294678
58.51562 163.7625 6.287354
57.11719 156.0051 5.87146
56.16797 153.5613 5.60022
57.92578 158.8269 6.115601
58.00391 158.3867 6.183838
57.85938 159.2378 6.141602
58.90234 147.9988 5.256592
56.38281 148.8027 4.926147
56.70312 146.741 4.636108
55.99219 150.8015 5.256348
87.23438 156.729 7.950684
84.18359 153.8452 7.977539
89.37891 152.8027 7.429443
86.80469 147.5132 7.255493
92.14844 144.4619 6.084717
43.21094 159.3689 4.631958
12.94141 151.8857 3.724365
5.058594 152.6428 2.372314
5.066406 153.8765 2.429077
48.21094 166.9106 4.864014
50.32422 159.8372 4.756958
55.71094 165.2935 5.996338
57.07031 164.5422 6.097534
54.77344 168.7612 5.833008
41.72656 163.2524 4.703369
43.29688 165.0266 4.707397
40.44922 166.5334 4.676392
44.79688 166.7725 4.814575
92.27734 137.428 3.263672
87.44922 135.3906 3.261475
22.07812 162.0303 2.839355
28.28516 159.2896 2.458252
31.75781 165.688 3.711426
32.33203 165.6926 3.809692
79.53516 150.2637 7.0177
79.02344 156.9636 8.205078
83.73047 159.637 8.360107
88.32031 160.8906 7.521118
79.47656 163.4492 8.440063
80.19531 168.7539 7.188599
75.16016 167.5396 7.247437
18.55469 148.7578 3.13147
18.98828 149.4558 3.19104
19.33594 149.9297 3.140869
78.12109 174.2837 6.352539
13.19531 149.0979 3.432373
14.72656 146.9453 3.144409
14.91016 150.7185 3.583618
13.85547 143.7268 2.316406
14.41406 145.8311 2.8927
15.05469 146.1179 2.911987
15.69922 146.3428 2.9646
16.55469 147.041 2.980713
11.69141 145.3101 2.655029
13.04688 145.6016 2.756958
84.34766 132.0378 3.466187
86.92969 127.5903 2.373901
44.78516 133.4519 2.033203
42.91797 136.2834 1.827271
41.5 132.7729 1.859619
39.91797 115.0134 3.002197
41.01953 117.113 3.363159
36.8125 116.5061 2.522217
9.703125 173.3613 2.691162
7.375 172.5676 2.802612
12.55469 172.9307 2.7854
9.792969 178.8765 2.199097
11.96875 174.0933 2.621948
18.33594 171.4529 2.411621
18.82812 171.9883 2.311646
23.80469 171.7537 2.397461
20.54688 169.6924 2.484863
18.85547 168.9941 2.557129
19.25 172.5574 2.28186
18.04297 172.7441 2.308105
22.25391 170.4241 2.474121
18.27344 169.0854 2.488647
17.63672 169.1475 2.521729
14.75 168.229 2.758179
17.98828 170.3142 2.418335
24.98438 166.1145 2.823242
44.78516 62.32373 6.068237
47.97266 66.98755 5.307251
42.89062 69.03467 5.62207
48.0625 71.30176 4.81897
38.24219 63.59644 5.988892
49.74219 58.71313 5.241211
50.34766 63.63477 4.934692
2.644531 129.6658 2.3927
2.636719 129.79 2.326294
2.226562 129.7612 2.465942
2.566406 129.9478 2.329102
4.253906 129.3169 2.169922
4.429688 131.1392 1.811401
93.35156 149.0339 6.710938
93.78906 153.5249 6.815674
103.6328 146.4421 4.529419
21.89062 138.7954 2.442505
10.51953 137.3037 2.35083
7.699219 135.1948 1.853516
7.515625 137.9832 2.138672
11.35938 133.6067 2.246094
5.460938 140.853 2.174438
10.05078 166.6609 2.570679
9.910156 166.5986 2.61853
9.835938 166.9766 2.58313
10.12109 166.7563 2.592041
8.0625 164.0017 2.604858
41.91406 171.2063 4.413574
39.49219 168.385 4.340332
44.33594 174.0615 4.549805
58.16016 175.7485 5.648193
51.42188 174.4148 5.062744
26.22266 174.0686 2.423218
24.30078 171.8831 2.43689
28.03906 172.6001 2.784424
28.07422 176.1921 2.45105
22.55859 177.5845 2.036987
16.29297 177.5796 2.53833
29.90625 170.9402 3.081665
29.18359 171.8489 2.908569
28.45703 172.6956 2.768677
30.08984 131.1951 2.060669
31.4375 132.4001 2.07251
31.875 130.3818 2.150635
33.51172 131.6201 2.194824
29.73047 132.9316 2.046143
30.39062 129.2102 2.214966
34.32422 136.3508 1.808838
77.42578 127.8157 2.44812
77.55078 122.6934 2.301392
97.17188 139.4316 3.196411
97.48828 144.9602 4.204468
93.60547 141.3203 4.404785
101.8125 141.1914 3.448853
106.9219 141.9846 4.09375
100.1562 137.198 3.203125
37.55078 123.1641 2.149536
36.64062 125.2161 2.185059
38.98047 124.4983 2.244751
39.02344 122.2979 2.624512
38.95312 122.2358 2.664551
39.09766 122.394 2.645386
39.02734 122.3318 2.686523
39.17969 122.4272 2.699585
38.13281 127.7175 2.206665
34.21094 125.0154 2.06543
35.77344 122.8726 2.091919
29.92969 122.28 1.89917
29.71484 120.2566 1.886475
28.30078 123.1602 1.917603
31.69531 121.1128 1.780029
29.38672 118.2097 2.14209
27.41406 117.6069 2.272827
28.84375 116.6025 2.342529
30.75391 116.3538 2.275879
23.60547 66.09937 4.564941
26.45703 57.59985 5.313354
31.27344 64.31006 5.208862
34.71484 58.16846 5.506714
35.88281 69.80981 5.860962
29.13281 71.34595 5.096558
28.00391 78.80225 5.2146
22.03516 73.67554 4.50354
30.58984 134.4521 2.100708
32.85938 134.0168 2.09729
49.89844 131.5286 2.69519
54.22266 133.0251 2.639648
53.17188 127.3196 2.126465
59.13672 132.5083 2.803833
59.63281 132.8237 2.742554
61.26953 133.8093 2.763428
62.33203 134.4453 2.79126
58.96094 135.8992 3.165649
60.13672 133.1108 2.776001
59.25 130.0359 2.516968
64.22656 133.656 2.615112
59.26562 128.2705 2.66333
57.77344 126.7168 2.613647
56.27734 125.1001 2.59729
28.34375 134.4521 2.337524
22.71875 134.7778 2.189575
18.67188 136.1553 2.193237
44.61328 126.9851 2.40332
41.40234 125.771 2.270264
41.28125 129.2002 1.798828
43.92969 124.6846 2.671265
43.36719 124.2732 2.711548
44.50391 125.1294 2.692993
44.35156 130.4148 1.947021
47.80859 128.7024 2.428589
46.74219 131.5098 2.393677
28.17578 132.1709 2.136963
25.92969 133.4338 2.33667
38.32812 131.5059 2.072876
35.73047 130.1472 2.355713
35.44922 133.2751 2.386597
40.94922 123.728 2.696289
40.45703 123.4746 2.724243
41.37891 124.0149 2.737549
39.8125 122.9343 2.680664
42.44922 124.144 2.717041
41.45312 124.0149 2.729736
41.38672 123.9863 2.832886
35.34375 127.4834 2.062622
33.70703 129.2771 1.990845
33.57812 127.2585 2.128662
14.35156 136.9353 2.307739
15.71484 133.1516 2.436157
12.62891 140.2114 2.168457
11.11328 144.8318 2.571899
48.47656 124.5408 2.672974
46.48438 124.8184 2.652222
48.41406 124.5117 2.775635
48.40234 124.5408 2.680786
32.09766 128.2678 2.222656
28.52734 129.9897 2.07019
39.28516 119.5 3.061768
2.1875 131.0149 2.114746
1.808594 132.0813 1.900024
4.703125 133.6646 1.707031
5.933594 130.1062 1.969482
7.421875 131.9092 1.88623
7.789062 129.3547 2.018555
10.30469 130.1917 2.269653
12.29688 128.082 2.312744
13.4375 130.5215 2.405273
14.65234 128.283 2.440186
2.792969 128.9102 2.463135
19.88672 123.9351 2.303955
17.90234 121.1182 2.343628
16.88672 124.4902 2.158813
21.48438 121.4529 2.591675
18.73438 126.011 2.109375
7.390625 127.2742 2.218872
5.9375 128.5276 2.016113
8.449219 116.8708 2.894897
8.949219 116.1155 2.928711
9.09375 116.2109 2.942383
6.777344 114.8962 2.526489
7.953125 117.5649 2.894897
7.667969 117.8804 2.915161
21.02734 126.2449 2.305664
19.23047 128.2874 2.116089
16.78125 127.1208 2.441162
16.55469 129.8325 2.288208
30.6875 127.1917 2.307861
29.40625 126.082 2.317383
28.97266 127.9426 2.243774
30.88672 125.4507 2.180664
26.59375 122.428 1.928345
25.33203 123.8823 2.081543
26.96094 123.9492 2.034668
32.30469 126.1824 2.199219
31.84766 123.772 1.938232
14.34375 126.0017 2.254272
8.144531 121.7925 2.684692
9.152344 120.2529 2.847046
11.64453 120.1665 2.872559
31.34766 118.8074 1.854004
33.34766 119.6396 1.999023
32.93359 117.272 2.114136
27.37891 115.6267 2.621582
25.02344 116.4688 2.495361
27.31641 115.1865 2.704468
27.10547 115.2825 2.756226
27.45703 115.0288 2.694824
26.00391 114.0864 3.035034
27.67578 113.9241 2.704956
26.40234 115.1865 2.800659
25.625 115.0911 2.854004
21.49219 116.2107 2.68396
20.42578 119.0518 2.710571
23.14453 118.918 2.174927
18.09375 117.5308 2.812256
22.85547 124.1934 2.174438
29.80078 124.2122 2.077026
28.10547 124.9343 2.106689
33.76953 122.1985 1.942383
37.60156 119.7346 2.628784
37.03906 118.9121 2.648438
38.10547 120.4951 2.647827
37.03516 118.8164 2.619629
3.679688 120.0759 2.793701
3.53125 120.4539 2.765991
2.691406 120.7695 2.844849
4.601562 121.7212 2.773926
3.324219 120.865 2.806274
4.25 119.6985 2.776855
7.15625 120.1809 2.772705
5.671875 120.4634 2.857422
6.429688 121.9749 2.605225
32.68359 114.8472 2.404053
34.46484 113.9382 2.465454
34.18359 113.7803 2.499756
42.32812 115.0085 3.637817
29.05469 114.8662 2.371704
27.80859 114.9331 2.629028
28.29297 114.364 2.5625
28.22266 114.584 2.532104
28.08984 114.7754 2.60376
38.87891 122.0447 2.614868
38.74219 121.8245 2.667358
3.394531 120.2339 2.818481
3.53125 120.1382 2.775513
3.039062 120.5161 2.784058
6.519531 118.4736 2.795898
5.816406 118.8513 2.827393
5.671875 118.6936 2.847046
7.167969 118.0671 2.867065
5.457031 119.0715 2.826782
5.25 119.0715 2.848755
5.671875 119.0093 2.838013
5.742188 118.9136 2.801392
3.878906 115.2073 2.663452
3.742188 115.145 2.711792
3.589844 115.4893 2.622192
4.875 114.9585 2.692993
4.449219 115.0828 2.670898
3.949219 115.2073 2.656128
5.355469 116.2498 2.508911
3.992188 117.7278 2.417358
7.882812 117.7227 2.897217
10.10547 118.2102 3.125488
7.808594 117.8804 2.900513
8.882812 118.3584 2.931885
9.878906 118.7747 3.004883
14.55859 118.8176 2.892212
18.60547 114.2495 2.9198
12.23047 118.3105 3.088379
11.94922 118.4685 3.113647
12.44922 118.186 3.132935
11.23828 118.5593 3.058838
10.44531 118.6504 3.012329
12.58203 117.2678 3.051636
10.16406 118.7124 3.008911
9.160156 116.1155 2.90625
10.01562 116.1821 2.940918
10.87891 116.1868 3.008789
5.667969 118.5979 2.818359
6.453125 118.3159 2.808228
5.664062 118.6602 2.785034
5.601562 118.6936 2.85437
5.460938 118.9136 2.831177
11.79688 116.1582 3.007935
9.089844 116.1155 2.913574
9.101562 116.0867 3.008789
14.00391 114.2688 2.991943
15.63281 115.7278 2.998657
3.097656 114.3511 2.64502
3.671875 115.0491 2.69043
3.527344 114.8916 2.710571
6.015625 113.9204 2.731445
5.664062 114.2361 2.759033
6.375 113.5425 2.737061
5.304688 114.5806 2.691284
9.019531 116.1155 2.920898
6.652344 113.2268 2.716797
2.605469 115.7095 2.687988
2.359375 116.3313 2.377808
3.035156 115.585 2.709961
1.734375 115.1208 3.178345
3.386719 115.4607 2.73999
3.027344 114.6045 2.676147
21.29688 100.5229 2.157349
20.875 100.8386 2.192749
21.94141 100.0205 2.199707
21.65625 100.2407 2.191772
22.1875 99.27417 2.576904
22.23047 99.73853 2.241943
20.62109 100.595 2.512451
19.45703 101.8145 2.217896
19.24609 101.9102 2.269043
19.00781 101.3218 2.692505
19.60156 101.7522 2.235962
2.429688 106.8333 1.702026
1.828125 109.2966 0.6743164
20.09375 101.4368 2.193726
20.59375 101.0925 2.246338
19.45312 97.91626 2.875244
20.73438 100.9966 2.202881
38.45703 121.1599 2.654541
3.980469 105.4648 2.277954
3.242188 106.1492 1.98584
4.625 106.2251 2.282837
2.0625 103.2791 2.290771
5.835938 99.28027 2.362793
5.636719 103.6758 2.505981
8.386719 103.7427 2.341431
16.66016 99.48071 2.646362
17.11719 101.1448 2.26123
17.68359 101.6521 2.25061
17.57422 102.9053 1.906738
18.25781 102.1301 2.334351
14.75 101.8579 2.045166
16.33203 101.0156 2.252563
15.55078 100.887 2.243774
18.75 102.0347 2.253784
13.61328 97.73486 2.701294
14.34766 100.3467 2.260254
14.98047 100.6001 2.217651
16.27734 95.19482 3.068237
12.93359 100.437 2.279175
11.44141 100.5283 2.306396
11.00781 101.093 2.209229
9.800781 95.37256 2.283813
5.628906 104.2737 2.426025
5.351562 104.4314 2.450317
7.152344 106.0674 2.020752
5.84375 104.0535 2.441284
4.921875 104.1445 2.408447
4.78125 103.9866 2.428101
5.132812 104.3357 2.444458
5.070312 104.2737 2.484619
5.28125 104.4314 2.457642
4.414062 104.7087 2.318604
29.05078 97.04541 2.334106
28.84766 97.14087 2.384399
28.94531 96.64331 2.643188
29.26562 96.98315 2.345459
31.95703 96.13647 2.277832
31.32031 96.45215 2.335205
31.17188 96.63892 2.25
32.53125 95.79224 2.32251
32.23828 95.146 2.944824
31.25781 96.45215 2.342041
31.11719 96.45215 2.356689
29.91016 93.26611 3.722778
33.21875 100.2114 2.118042
33.43359 100.1494 2.128784
33.65234 100.0249 2.173462
33.93359 99.86743 2.149048
33.74219 94.18506 2.338501
33.66797 94.56274 2.303467
34.54297 94.86914 1.884155
33.52734 94.97412 2.337402
33.8125 93.86938 2.341187
33.8125 94.0271 2.33606
32.55078 92.2478 3.189819
34.52344 93.42944 2.342896
35.17188 93.02271 2.413574
35.78125 91.20483 2.848755
33.02734 95.41431 2.313599
37.48047 94.73999 1.483398
37.78125 98.30273 2.266724
35.80078 92.70703 2.356812
36.375 92.4248 2.368164
42.82422 96.3606 2.301025
43.24609 96.14087 2.29541
43.75391 96.22632 3.002197
43.6875 95.89209 2.383545
43.82422 95.85815 2.306396
43.89453 95.7959 2.331909
41.98438 92.96045 1.729126
40.04688 97.36084 2.214722
40.47656 97.17432 2.270508
39.20703 92.96997 2.339111
38.78516 93.12769 2.379028
39.57031 92.84546 2.36853
39.39453 92.41479 2.78064
37.57422 92.80762 2.357788
39.99219 92.7832 2.3573
40.42188 92.65894 2.379395
47.66797 79.91602 4.475464
47.25 77.13696 4.570435
48.99219 78.23706 4.195923
44.10547 79.28931 5.028809
49.58594 76.31909 4.445068
45.39453 94.71387 5.098511
46.94922 93.71997 2.327148
47.09375 94.06982 2.36499
45.37891 91.94604 2.32251
45.31641 91.88379 2.363159
45.39453 92.01294 2.446045
45.45703 92.04175 2.343506
45.1875 91.98828 3.772339
26.92969 112.3215 3.085205
25.10156 112.3838 3.244385
41.10547 100.522 2.16748
41.22656 97.30249 3.331055
44.46484 99.11572 2.332275
34.85547 103.4397 2.134766
34.78125 103.4397 2.142578
34.85156 103.502 2.10144
36.68359 102.196 2.61499
34.92188 103.4397 2.12793
26.30859 93.26172 3.943481
26.51562 97.18872 3.169189
24.47266 95.48145 3.339966
30.89844 96.57666 2.312622
30.69141 96.67236 2.363281
45.3125 96.81909 3.646118
45.52734 94.91626 2.313477
41.33203 96.92554 2.314697
42.11719 96.64307 2.304199
40.90625 97.0498 2.292114
46.01953 93.34082 5.613892
32.50391 100.3982 2.091919
25.40234 106.1135 2.733154
23.09766 105.4536 3.091675
24.00781 104.3486 3.028076
25.86719 103.7891 3.13501
27.26953 102.6609 2.227295
27.53906 102.5649 2.169312
27.76172 102.4407 2.213379
29.97656 96.85889 2.337769
28.25781 102.2205 2.199341
26.12109 99.7915 1.480591
26.77734 98.27002 2.314575
26.35156 98.48999 2.321289
27.20703 97.98804 2.341675
25.71484 98.67651 2.287842
25.07422 98.80103 2.28772
24.34375 98.08813 2.830444
27.91797 97.61011 2.310181
28.77344 97.20288 2.358521
28.62891 97.26514 2.340332
6.199219 103.8958 2.408691
6.488281 103.7092 2.479126
6.195312 101.4944 2.41687
32.12109 113.0771 2.451782
31.69922 112.9194 2.501221
30.69531 113.7041 2.424438
32.54688 113.2063 2.498169
32.48047 112.2593 2.533936
31.19531 113.0439 2.486938
30.63281 113.1682 2.479004
30.30078 111.2788 2.730103
33.40234 113.4934 2.494995
30.89062 105.927 2.255859
30.96094 105.9893 2.21521
31.03125 105.927 2.241211
28.15234 105.6736 2.52063
29.80078 108.4954 2.674927
25.85156 103.3208 2.261475
26.55469 103.0049 2.196777
26.81641 108.2659 2.709595
31.10938 106.0225 2.261597
31.10938 105.9602 2.294922
34.00391 106.1755 2.841919
32.14453 107.8066 2.639893
31.03906 106.0225 2.269409
31.03516 105.865 2.274414
31.10156 105.927 2.233398
33.78125 108.5715 2.697998
30.97266 105.9941 2.372559
25.28906 103.5408 2.282715
25.5625 103.4451 2.224731
23.37109 104.4209 2.330444
23.72266 104.1675 2.27002
24.07422 103.9473 2.270752
24.71484 103.7273 2.242065
23.15625 104.6409 2.315063
22.95312 104.8943 2.36084
22.24219 104.9231 2.34021
22.58984 104.9231 2.303101
21.95312 105.0476 2.302979
47.40625 94.06274 5.318359
30.96094 105.927 2.248535
28.04297 110.5808 2.86084
34.77734 103.502 2.109253
34.71484 103.5354 2.178589
34.72266 103.5688 2.240112
34.78125 103.5977 2.138062
25.60156 110.4275 3.281982
22.23438 114.01 2.989014
21.37891 113.47 2.968872
23.66797 113.9861 3.093628
23.08984 114.5505 3.01062
73.86719 21.94678 3.069092
23.57812 114.6128 2.925049
24.07031 114.7085 2.9021
24.84766 114.8997 2.878052
24.37891 107.4915 2.418945
24.65234 107.8071 2.380127
24.875 108.1562 2.410278
24.16016 108.5339 2.44165
24.51953 108.3762 2.409058
23.87891 108.8159 2.399902
24.09375 107.5537 2.415527
23.73828 107.6157 2.419312
23.45703 107.6494 2.511108
20.75 105.6453 2.3479
36.75391 111.5176 2.646118
36.62109 108.4233 2.721191
9.21875 111.5623 2.782104
9.925781 110.7109 2.764771
18.21875 108.8357 2.583252
18.56641 108.8357 2.546143
20.04688 108.6155 2.428711
18.99609 108.8069 2.596558
17.23047 108.8977 2.653564
34.41016 110.657 2.632935
39.55859 103.0476 2.255371
37.11328 105.1375 2.671875
34.91797 103.502 2.094604
34.92578 103.5354 2.156616
34.85547 103.5977 2.130249
29.42578 113.5125 2.500732
28.86328 113.6707 2.55481
28.80469 112.7571 2.6521
29.92578 113.3882 2.515015
28.57812 114.0483 2.542725
30.27344 113.2927 2.450073
13.21484 110.0317 2.947632
13.00391 110.094 2.936279
21.21875 112.4226 2.825928
21.37891 113.3743 2.940063
21.375 113.4365 2.90686
32.14453 109.8296 2.674072
44.26562 117.1887 4.512085
47.28516 120.2644 3.498291
49.85938 115.2129 4.426392
48.06641 109.8804 4.839111
45.78125 105.6479 4.062988
52.625 120.9294 2.979736
47.875 95.55713 2.365356
47.26953 101.832 2.018311
52.94531 123.8899 2.634644
50.73828 124.23 2.603027
62.67578 117.2065 5.304688
56.68359 116.3604 5.102783
68.65234 118.0625 4.775757
60.59766 71.36328 4.512695
51.36719 83.94385 2.471802
52 83.66162 2.477051
94.49609 114.0586 3.411621
92.25 115.2405 3.009033
93.41406 113.2256 5.266846
51.56641 88.39697 2.381104
51.91797 88.33472 2.377319
43.12891 102.8127 2.489746
50.42188 105.9624 5.661255
48.46875 103.1648 5.283691
48.59375 95.30127 6.459473
46.69141 96.33521 5.294067
46.62109 98.62134 4.629028
48.51562 96.76538 5.75647
51.375 91.11133 6.577026
51.31641 92.7998 5.993042
49.07812 100.051 5.69397
46.39062 101.5969 3.770142
51.12891 97.30542 5.591553
