# .PCD v0.7 - Point Cloud Data file format
VERSION 0.7
FIELDS x y z
SIZE 4 4 4
TYPE F F F
COUNT 1 1 1
WIDTH 1330
HEIGHT 1
VIEWPOINT 0 0 0 1 0 0 0
POINTS 1330
DATA ascii
11.07073307 5.219185352 50.41226196
15.35089588 0.9671405554 52.54855347
14.60520935 1.12445569 50.30487061
14.79287529 1.073756218 50.5657692
14.18982315 1.314653158 51.47061157
14.46260452 1.19372046 50.98157883
14.73785114 1.096977115 50.87176895
14.48515892 1.158459902 50.6486702
14.56036949 1.139659762 51.85239029
15.02299881 1.047461867 51.12175751
14.99295521 1.049931169 50.76393509
14.08696175 1.39497447 50.37985992
14.11684704 1.417725444 50.11932373
14.37480354 1.255371094 50.02392578
15.53815937 0.9524590969 50.50771713
15.76313782 0.9476451874 50.48877716
16.98342896 0.8056060076 50.43908691
16.53580475 0.8694862723 50.59276581
17.00595856 0.8148886561 50.90790176
15.13549805 1.020381212 50.5339241
15.8007431 0.9382235408 51.09062195
15.42766953 1.030100226 48.46291351
15.26262474 1.055200577 48.57914352
15.23501682 1.077011824 48.24546051
15.90067005 0.9094647169 49.94717789
16.0781517 0.9161102176 50.12324905
15.9857769 0.8885932565 50.35403824
15.44571209 0.9646376967 51.18517303
16.21320343 0.9031069279 50.35922623
15.29088497 0.9865640402 52.89798355
15.82840824 0.926040113 52.13436127
16.13853455 0.9051830173 52.87733841
15.74290371 0.982953608 49.42575073
15.6178093 1.003518224 49.10296631
16.01032066 0.9977596998 49.34694672
17.87831116 0.8174250722 50.49848557
16.6459465 0.8375054002 51.04586792
16.43293381 0.9498028159 49.50206757
17.92079926 0.8466969132 51.14862823
17.1783638 0.852632761 51.21908951
17.37593842 0.7998763323 50.68310547
20.29554367 0.8428707123 51.11050797
17.27852249 0.7589581013 50.24727631
17.59092903 0.7826009393 50.39599228
17.34072304 0.966987133 52.86554718
20.40073776 0.7625924945 50.80532074
23.34329033 0.6308524609 50.53308105
23.71836281 0.5895362496 50.52818298
23.54082108 0.622615099 50.79878998
18.39549637 0.9257811904 51.07701111
22.8732605 0.7540578842 52.79476547
22.70558548 0.8295989037 53.07022858
23.04820061 0.7762287259 53.03836823
17.70796967 0.9878969789 51.7348938
17.34062386 0.952507019 51.80046463
17.54803085 0.9867365956 52.07104492
16.04086876 0.9243715405 51.91483307
20.50763512 1.030095339 52.41447449
17.25818062 0.9277758002 51.58939362
16.51091957 0.9046604037 52.32161713
17.18567276 0.9551728964 52.09322357
16.15352249 0.9214131832 53.10210419
23.19067955 0.6877035499 50.94159698
22.96807861 0.7515502572 51.43137741
22.73064995 0.7246613503 51.15803909
20.51004028 1.044585109 52.08356857
22.98819733 0.7463095784 52.23107147
22.61580467 0.6481518149 50.47328949
22.34086227 0.6450784206 50.66305923
22.31823921 0.6707062721 50.28598404
23.63082123 0.6897317767 52.41067123
23.44321251 0.7501118183 52.85980606
23.72316551 0.7617678046 52.98157501
16.95094299 0.7887381911 50.05714417
22.92078781 0.6487367749 50.64130783
23.14574242 0.6390897632 50.26734924
21.89092255 0.6595680714 51.05595016
22.49303627 0.8168160915 52.22472763
22.30304909 0.8181011081 52.203022
23.29324341 0.7071941495 51.95239258
23.28586197 0.6889022589 52.32670593
24.22327805 0.6409309506 51.43276215
24.54330254 0.6180073619 51.37884903
24.04334641 0.6642765403 52.38928223
24.28836441 0.6397658587 52.10501099
22.51834869 0.651743114 50.83916473
20.53524017 1.008250594 52.74816132
21.45557976 0.8790613413 53.19703674
21.24798965 0.9146094918 53.10982895
23.66322136 0.6921866536 51.72758865
23.87078857 0.6518006325 51.45974731
24.06334496 0.6397514939 51.76889038
23.86570549 0.7322274446 52.75158691
24.72072411 0.5656488538 49.68816757
23.94561768 0.7725080252 53.03021622
18.12555504 1.02522397 53.53688431
20.63275337 1.01429677 53.09226608
14.45047855 1.160838127 53.08272552
14.6506443 1.102184176 53.18922806
14.10766506 1.28393805 53.29789352
14.24278545 1.231229544 53.08715439
14.37790585 1.178554654 52.87644958
13.91986465 1.364710093 52.77367401
14.14263248 1.275585651 52.90227127
16.14336586 0.9342486858 52.21554947
16.26347351 0.9098770618 52.58179092
17.58563805 0.9773533344 52.67294312
17.78546715 1.013678193 52.34442139
19.01540565 0.8803990483 49.81450653
19.72076607 0.7684612274 50.55052185
22.07339668 0.6700110435 51.18864822
22.13070297 0.7407093644 51.44514847
19.41568375 0.8027531505 50.47418213
19.54559326 0.8111870885 50.13522339
21.82583618 0.6606996655 50.3837204
22.01839638 0.6486744881 50.69284439
17.88072205 0.8319482803 50.1676178
21.09819984 0.7032529116 49.70557785
18.97805023 0.8789989948 50.89600372
19.63046074 0.8998033404 51.1721611
17.66595268 0.78422153 50.62635803
19.52062225 0.8319339156 50.7990036
20.51536942 0.9040514827 51.31842804
19.9357605 0.7511954308 50.26340103
20.44833755 0.716270566 50.51863861
20.32324791 0.7368351817 50.1958046
22.15803337 0.8235431314 52.05390167
21.08084297 0.6773565412 50.16672897
21.17102242 0.6254104376 50.43848038
20.76548386 0.8532561064 51.25404358
17.57582092 0.796476841 49.90790176
21.51101112 0.6225048304 50.56591415
21.41340256 0.65130198 50.3134346
20.06567574 0.7596916556 49.92444611
20.32566261 0.7513728142 49.86494446
22.18591309 0.6477347016 50.95578766
21.74073219 0.681571126 49.97685623
22.06806183 0.7118690014 49.64034271
22.09068108 0.6862412095 50.01742935
21.37565231 0.7846722603 51.40670395
16.2553463 0.9780581594 49.41768265
20.69823837 0.7304246426 50.28257751
20.95321274 0.762827456 51.06818008
21.39078331 0.6769154072 49.93630981
21.58317566 0.690124929 49.62710953
21.95058441 0.6858048439 49.1148262
21.86309624 0.6969574094 49.39388657
21.61071587 0.6586666703 49.25076294
24.82250977 0.6620181799 46.45045853
21.47294617 0.8556390405 51.57917023
22.1455822 0.7917636633 51.76158142
23.55825043 0.6581632495 51.04772949
23.33307457 0.7327548862 51.25004196
23.60314941 0.7019199729 51.36692429
23.90077209 0.6397035122 51.10759354
22.45301819 0.8117001653 51.9537468
22.72310066 0.7809035778 52.07070541
23.52831459 0.6798833609 52.10991669
22.40802002 0.7041207552 49.41270065
22.69545746 0.6992205381 49.0685463
23.3080616 0.7486302257 51.55878067
22.51312065 0.7573997974 51.51264572
22.72306252 0.7760800719 51.71567535
22.36085892 0.669919908 51.19943237
23.8409214 0.6338635087 52.07530975
23.00301361 0.7877600193 51.83747101
23.68584633 0.6171874404 50.9479332
23.79084587 0.6066966057 50.82611084
24.56577492 0.6176764965 51.13765717
24.89097595 0.5287582278 50.85688019
24.93844604 0.5124896765 50.30690765
17.83299828 0.8590097427 49.03424454
17.6956501 0.8274172544 49.39249039
23.22558403 0.6697233319 49.83594894
22.7331295 0.748788476 51.53713989
22.71805191 0.7674543262 51.40405655
24.37810707 0.6190094352 49.71999741
24.0880909 0.6346210837 49.77672577
20.158144 0.7522982359 49.60198593
22.88077354 0.6436207891 50.37031937
22.81073952 0.6458072066 50.09654236
18.6529789 0.8391595483 49.12660217
20.78820038 0.6447188258 48.06923294
20.88602257 0.5509673953 48.49333954
20.49333763 0.62649405 48.4327507
19.20054054 0.7958823442 48.98620987
15.14539433 1.018319488 49.73704147
19.15795135 0.8508347273 49.58448029
19.2880249 0.8340579867 49.86388016
18.99297142 0.8362491727 49.25402451
19.56296349 0.8371026516 49.67408371
19.3955307 0.803160727 49.31949615
19.83308983 0.7666056752 49.34432602
17.18842506 0.7759793997 49.88380814
18.2328949 0.871543169 48.90394211
18.09800339 0.8592974544 49.28628922
16.04772949 1.008768439 48.97544479
20.41334915 0.6704329252 49.40250778
20.14326096 0.701215148 49.28554535
20.33841896 0.6339402199 49.08047867
20.92090416 0.6268392801 49.34612656
19.7880764 0.8022257686 49.91848755
19.9005928 0.7799637914 49.68566895
20.64593697 0.6189854741 49.18093109
23.57297325 0.6851384044 49.58908081
22.30552292 0.694262743 49.11200333
21.00848389 0.5808050036 48.97542191
21.34848022 0.5778850317 49.10282516
21.24582672 0.6426379085 49.34047318
20.14818382 0.6953847408 48.53211975
20.30337906 0.6326360703 48.76605988
16.92806244 0.87449193 49.15339279
15.27982426 1.05699861 46.34292221
19.4980011 0.7588765621 48.10846329
19.76297379 0.7543455362 48.00550079
22.54041672 0.6873871088 48.29621124
22.49030495 0.7047632337 47.84872818
22.69780922 0.7041015625 48.02761078
21.36107826 0.535048902 48.8567276
23.92509651 0.7644432783 48.77207184
23.75757027 0.7653974295 48.5091629
17.26328468 0.8028346896 49.49582672
16.41529083 0.9792137146 49.08152771
16.76774979 0.9635109305 48.69952774
20.60601807 0.5789686441 48.81824112
19.1974144 0.86787045 45.77869034
18.30785179 0.8635311723 48.42428207
18.74297905 0.8076390028 48.42499161
16.9827404 0.9462738633 48.41242981
15.86749077 0.9839317203 46.38181305
15.667449 1.012551427 46.53864288
15.89756775 1.035628557 48.25138474
18.39045143 0.8630133867 49.25369263
15.51994896 1.043117881 47.16710281
15.22984409 1.093630433 47.3155098
15.06731129 1.09837234 47.00917435
13.38794231 2.583660364 46.5473671
16.16765213 1.004807949 48.36832428
16.19770432 1.002343535 48.7261467
17.84001732 0.9675193429 47.86995316
18.23515892 0.9113059044 47.95471573
16.45009804 0.9961295128 48.06755447
16.47263527 1.005421638 48.53635788
16.71511269 0.9964123964 48.31961441
15.55037117 0.9998070598 49.47163773
15.17782593 1.025550008 49.40899277
15.14756107 1.092997432 48.87952805
15.47265339 1.038980007 48.69047165
14.87506676 1.109251618 49.09345245
14.81515217 1.093802929 49.35118484
14.59508801 1.142114758 49.77336884
14.3246603 1.267928481 49.22144699
14.4023447 1.223903298 49.64757919
14.15436077 1.393871665 49.656147
14.20446587 1.327167392 48.94688797
14.59251308 1.152840495 49.48589325
15.47504139 1.048689365 48.0045929
14.62993145 1.163849235 49.11442566
14.22175598 1.343407154 47.77570724
14.45188808 1.267808557 47.17498779
14.20653248 1.387326837 47.02430725
13.5437994 2.326063395 47.29622269
13.48624802 2.364838362 47.66976547
13.40063381 2.555280447 47.36631393
14.97982216 1.109524965 47.28823471
8.048856735 8.357515335 48.72190475
13.24480915 2.719025373 44.65901184
12.81714821 3.581099033 43.93175888
11.59681606 4.689074993 46.83607101
12.25355625 4.13506794 47.97112274
12.02052212 4.316414356 47.84940338
17.78972816 0.9559688568 45.29241943
9.71049118 6.837824821 46.54143143
11.44278049 5.11631918 44.79467773
11.69120026 4.816456795 45.12939453
7.932397842 8.770547867 46.92738724
8.205476761 8.549812317 46.51835632
11.32289314 5.125093937 45.75680161
12.96486378 3.436235666 42.31820679
13.13306808 3.195933342 42.29436111
11.77590942 4.880965233 44.39125443
16.0593853 1.068050504 43.86256409
12.64378452 3.838048697 43.02569962
11.79987335 4.569206715 48.46673965
11.80252457 4.523575306 48.66248322
11.5543642 4.763307095 48.85439682
12.55510616 3.529277563 45.9139061
12.53736591 3.593522072 45.58502579
12.71565819 3.330746889 45.7376709
12.44980907 3.644403696 46.31076431
12.6457119 3.347408533 46.52891541
12.4317379 3.80368948 45.54696655
12.37914467 3.846214056 45.87704849
12.9362154 3.112835884 45.21204376
12.68312073 3.358417273 46.15739822
11.18807983 5.176627636 48.36093903
11.3835516 5.009502411 48.23578262
11.35356522 5.02162838 48.58798981
10.91521168 5.283070564 47.78488541
7.777197361 8.931962013 49.00687027
11.84242153 4.460083485 46.35668564
10.97516441 5.25401926 46.72544861
10.88466454 5.405825138 46.37371063
11.23577785 5.046076775 46.82582474
12.83799553 3.341309547 44.79964066
16.10746193 0.9953048229 46.58764648
16.08489418 1.030584455 46.92058945
15.79996109 1.015083075 46.84220886
12.32658005 3.888796091 46.20719147
12.75551605 3.459792137 47.70375061
12.0304327 4.36370945 48.20926666
11.93034267 4.368355751 47.57764435
14.35681343 1.281090021 46.85496902
14.35668945 1.311167359 46.59163284
14.18632698 1.427487612 46.31630707
12.45413876 3.941705942 48.06587219
12.37411022 3.93147397 47.52391815
11.95794582 4.395891666 49.06806564
19.64284706 10.20335293 55.00056839
12.79636765 3.150963545 47.14957428
12.93859863 3.319905996 49.15305328
13.75992203 1.890270233 45.90890884
12.79365349 3.23627615 47.40049744
12.9413271 3.185260296 47.74541473
11.77715111 4.629702091 48.18128586
10.80955505 5.537771702 48.54851151
10.63908768 5.688973427 48.36487198
10.64166737 5.727599621 49.80908966
10.46102524 5.936127186 49.54061508
10.47828674 5.996910095 49.17115784
10.66401482 5.757278919 49.30452347
6.722418308 9.800731659 50.88981628
6.611664295 10.03234863 50.27684402
8.596118927 7.73933506 52.23225021
9.342529297 7.051458836 47.60385132
9.485321045 6.961744785 47.90045929
9.25967598 7.161401749 47.40444946
9.40253067 7.032016277 47.25439072
7.885515213 8.631682396 48.43900681
7.910768986 8.555633545 48.65687561
7.837605953 8.777854919 48.64574432
9.796010017 6.682250023 46.93655396
8.376998901 8.167725563 49.51863861
8.650341988 7.886873722 49.63629913
10.63349724 5.786143303 45.93492508
10.45785618 6.003315926 45.97805786
10.49527454 6.014324665 45.60656357
7.77021122 8.877623558 51.68290329
8.773231506 7.638799191 46.99142456
8.633037567 7.72256279 47.33724976
8.439790726 7.973965168 47.31488419
8.584989548 7.894012928 46.92567825
8.946771622 7.986863136 43.98343277
9.10136795 7.399637699 46.63144684
8.862950325 7.711899757 46.56488037
8.381770134 8.137777328 46.99010086
8.259116173 8.325716019 50.16159058
9.181684494 7.403895378 49.21177673
10.12235928 6.278308392 48.22410583
9.876494408 6.567411423 48.17683411
8.833385468 7.692821503 49.57381821
10.21034241 6.097532272 47.84162521
9.966938019 6.406011105 47.81853485
9.633214951 6.796474934 47.26027679
10.68156433 5.713397503 48.6599617
10.62621403 5.836440086 48.88599777
9.420103073 7.04232502 48.12162781
9.550620079 6.846321106 47.58762741
9.362412453 7.160447598 49.38855743
9.65079689 6.856112003 49.28424072
9.78403759 6.624147415 49.65603256
9.550893784 6.840342045 49.62599564
9.340390205 7.030961514 49.97308731
9.385456085 7.000140667 49.75394058
8.266705513 8.372944832 51.91739273
8.723313332 7.734405994 49.83079147
7.277935982 9.566468239 49.82501984
7.654994011 8.940673828 51.36492157
8.69617939 7.680493832 51.35211563
8.793944359 7.577109814 51.06620407
9.239835739 7.210030079 49.79990768
7.975420952 8.733704567 50.14254761
8.028306961 8.591340065 49.89238358
8.141366959 8.404320717 49.91120529
8.056073189 8.494956017 49.68772125
7.077142239 9.824798584 49.55859756
7.556150436 9.274924278 48.83417892
6.045339584 10.47426891 49.94021606
7.175506115 9.566257477 50.23432541
7.240047932 9.680521011 49.49821091
7.380682468 9.466843605 49.49565887
6.947133064 9.85122776 49.98924637
6.303415775 10.28183746 50.10812759
6.583740234 10.15396881 49.86318588
6.308277607 10.31567383 49.80138397
6.345293045 10.41206264 48.28489304
6.573431492 10.19206047 48.35832977
6.402911186 10.38295841 48.62137985
6.097107887 10.65177059 48.47680664
6.778995991 10.0518198 49.56640625
8.497576714 8.018292427 50.58319092
8.650481224 7.861615181 50.25463486
8.622887611 7.883416653 49.92092133
7.629034996 9.157377243 49.12039948
7.53625679 9.264573097 49.36287689
8.708415985 7.732665539 50.67106247
8.302052498 8.225093842 51.15503693
9.999987602 6.312259674 49.96382141
8.555516243 7.889362335 50.99965286
8.133599281 8.574851036 51.80895233
8.883682251 7.605705738 49.83795929
8.788454056 7.693540573 50.05631256
8.53336525 7.839218616 52.47755432
8.709307671 7.52223444 52.51437759
9.00927639 7.415537357 50.05735779
9.056648254 7.434140682 49.59901047
8.941876411 7.4166255 50.78104019
9.117387772 7.229520798 50.47457123
9.682629585 6.338913441 51.37025833
8.886372566 7.564898014 50.38874054
9.562026978 6.532870293 51.10744095
10.25537491 6.160626411 49.58098984
9.340869904 6.90589571 50.67140579
9.363102913 6.970447063 50.2585144
9.22755146 7.153035164 50.12593079
10.7524929 5.505622864 51.13207626
9.301218033 6.810595512 51.19039917
10.0350275 6.313563824 50.27821732
10.29510403 6.221025467 48.97026825
10.43308163 6.052979946 48.77197266
9.496560097 6.673538208 50.80194092
11.60415268 4.796452999 48.06520081
12.37686157 3.949674845 49.94145966
12.25635147 4.108778477 49.58699799
10.13717461 6.369053364 48.98722076
10.31283951 6.156709194 49.29909897
10.92746639 5.433922291 49.41728973
10.85035324 5.367313862 50.75448227
10.56949711 5.659945965 50.74782944
10.3890419 5.84807682 51.45275116
10.40865707 5.815041065 47.72888947
10.23290634 6.062291145 47.50872803
10.66723251 5.60108614 51.26364136
9.339105606 6.696519375 51.51721191
12.31631851 4.084502697 48.8825264
12.09062099 4.323845863 48.83320618
11.47447872 4.777187824 50.08751678
11.60417652 4.801228523 48.42016602
11.84264278 4.493824005 48.84178162
10.79188633 5.611687183 48.92968369
11.97286224 4.402470112 48.58283234
12.17835999 4.252567768 49.08083344
11.17818832 5.129342079 48.00111771
11.11047649 5.230285168 48.64485168
11.18823814 5.1513834 48.97928238
10.65450764 5.525933266 47.77619934
10.18759155 6.153213501 47.2012291
10.01669788 6.532980442 48.98774719
10.40565586 6.054370403 49.41165161
10.97250366 5.398307323 48.8431282
10.54402256 5.702245235 48.04482651
10.37093258 5.90388298 48.02044678
13.89046383 1.649766564 44.57317734
11.34883308 4.957700253 49.15809631
9.706132889 6.683726788 47.90150452
9.931806564 6.4395504 47.59579086
10.23503971 6.230778217 48.60962677
10.0946312 6.379549026 48.78383255
7.229691505 9.758300781 48.44005585
7.345076561 9.620687485 48.21965408
7.375671864 9.458236694 49.18410873
16.31223297 0.981294632 44.70401001
15.71959209 1.050573707 44.70853424
16.02707863 1.03075707 44.45396805
16.01968956 1.012445927 44.82826996
13.39076614 2.41413784 45.0480423
13.27780724 2.566303492 44.93756485
17.96185493 0.9996440411 43.56517792
17.6342659 1.029496074 43.37508011
14.77720642 1.148860931 47.15759277
13.24746609 2.722750902 46.01150894
13.58626175 2.301188469 46.43462372
14.95214748 1.121727467 46.24451065
13.54916 2.091687441 44.57262421
16.13891792 1.149167776 42.19449234
16.20397949 1.1432271 42.51171875
15.96645832 1.151124001 42.32998657
14.88472843 1.117992401 46.61318207
14.33145905 1.34267354 45.57205963
15.74719048 1.028719306 45.04223251
16.0522747 0.9944465756 45.11857605
15.38947487 1.095927 44.58596802
16.96225548 1.04173696 46.82278442
17.47013474 0.9476403594 48.00307083
17.52240562 1.004951835 47.59300613
16.2572155 1.004501104 45.00999069
16.53236198 0.9426106811 44.99183273
14.45166779 1.283425093 45.84662247
14.58180141 1.226938367 45.67930984
20.8515625 1.019906521 44.25312424
21.07652473 1.010259628 43.87918091
19.65521049 0.7959734201 46.86652374
13.37543678 2.49292016 44.38828278
13.44816875 2.400602341 44.05613708
13.48116112 2.247880459 44.33467484
14.00038719 1.633406878 43.69788742
13.76725292 1.849591732 43.66783524
14.71435261 1.184984446 45.18115234
14.47905064 1.277191877 44.85192108
15.37236691 1.05926168 46.73051453
11.22738647 5.268254757 45.09347916
14.53424263 1.228769898 45.16430664
14.07605839 1.489502668 45.59988403
14.67202473 1.179810882 46.30607224
14.27875519 1.365932822 44.48210144
14.54658413 1.246030927 44.3915329
13.41332531 2.378877401 44.71509933
12.74718285 3.592908382 44.36796951
12.60887432 3.856024027 44.1313324
13.59120941 2.201477051 43.72270203
14.19343758 1.451758504 43.90364075
16.02924538 1.105396628 43.59645081
13.38936138 2.739983082 41.7963562
15.87940025 1.081792235 44.10909271
13.61565304 2.296177864 41.65057373
15.31642723 1.18938601 42.52468491
15.23151207 1.189827085 43.09118652
16.32147598 1.124738574 42.2354393
14.9714222 1.233027577 43.24242401
13.663414 2.224592447 41.98221588
13.76916122 1.984362125 42.28362274
13.60086632 2.259526968 42.399189
13.8369112 1.888275743 41.99490738
14.29877853 1.346250415 44.2167778
9.941180229 6.602283478 46.54732132
10.11427498 6.40065527 46.57171249
16.02372742 1.167713761 41.07478714
15.8987999 1.163038969 41.37031555
15.76627827 1.160478473 41.06677246
13.88918304 1.896191835 40.42811966
12.9933548 3.20399332 44.49521637
12.84774303 3.413872957 44.54117966
14.03532219 1.620250225 42.94722748
13.99241829 1.725676775 42.30882645
13.87460709 1.843962789 42.50508499
15.32674026 1.151339769 44.02959824
15.09679413 1.157150984 44.44691467
13.29473209 2.722089052 44.13312149
13.14880943 3.031771183 44.09912872
15.66195965 1.079663277 44.37201691
15.36186695 1.117752671 44.2522583
14.04825306 1.531729817 44.29283905
14.79927158 1.18454814 44.61463928
13.78260136 1.874308586 46.99604797
13.69943619 2.084097385 46.71675491
16.35732269 1.004630566 45.99657822
21.171875 0.9416757226 45.08088303
20.98458862 0.9022006989 45.60996246
20.79203224 0.9142738581 45.30082321
14.54922199 1.244990468 45.38906479
16.72492027 0.9305567741 45.30096054
16.61722374 1.031183839 46.02872467
16.34488106 1.022246361 46.86101151
14.42421341 1.279987216 46.13125229
18.32699394 0.9555804729 44.00214386
18.20206261 0.9509007931 44.29764938
16.93731308 0.9686269164 45.52814102
17.0149231 0.9149547219 45.24425888
14.67216778 1.15455699 46.92441559
14.54698753 1.210022449 46.69329834
14.56691933 1.225193024 46.51961517
14.43176937 1.273054004 46.37530136
13.99599075 1.573146701 47.01638794
21.41650963 1.007349133 44.00658798
18.55969429 0.9185891151 44.84561157
18.82955742 0.9527323842 44.79092407
19.18204689 0.9418531656 44.76392365
16.71991348 1.020630598 47.30284882
16.7798233 1.036108017 47.04511642
17.02232552 1.031941414 47.18339157
16.48980904 1.051719666 47.10185623
13.70987988 1.966602445 47.32818222
13.54854584 2.390001297 46.72616959
13.61155415 2.229948282 47.00748825
17.3697052 1.047351599 46.93649673
12.84315968 3.42335701 48.0430336
13.62696457 2.11628437 47.57554626
16.27246857 1.014733076 47.27313614
17.45785141 0.8906693459 48.32910538
13.46644115 2.319590569 48.10678482
16.22991562 1.025171161 47.06970215
17.82482719 1.016262531 47.47354889
17.19276047 0.9252825379 48.16876221
20.27809334 0.7038330436 48.1931572
19.99307442 0.7232517004 48.20648575
16.62001038 1.004879832 47.64455795
16.45991898 1.02897346 47.36240387
18.91008759 0.8427076936 46.38619232
19.19013596 0.8194915652 46.41629791
18.95009995 0.8478188515 46.6571846
16.95244026 1.008893132 47.5279541
17.2898674 1.016708493 47.36791229
17.59229088 1.028009653 47.24845123
17.44983673 1.022682786 47.38678741
20.50815773 0.6679301262 48.03915405
16.86517334 0.9551153779 47.97862244
18.05945778 0.9708420634 43.81767654
23.88263321 0.6413336992 46.16350555
23.42754936 0.6772319078 45.9814682
17.2249279 0.8939297795 45.0005722
17.23483849 0.9412490129 45.36043549
22.16059494 0.6647895575 48.87117386
22.50045776 0.6919181347 48.73525238
21.29602051 0.5410279632 48.53953552
21.90324211 0.6226774454 48.771492
21.62087631 0.5964981914 48.98059082
21.60599327 0.5454151034 48.66413879
22.12553596 0.7079613209 49.3584671
22.1581192 0.6406097412 48.49202728
22.23797035 0.6712912321 48.06063461
22.24536324 0.6896023154 47.68632889
22.39012718 0.7442957759 47.30879211
22.86272812 0.7090401649 47.6480484
23.12039757 0.7006733418 48.98443222
19.53265381 0.8010414243 46.47615051
19.81258392 0.807888329 46.24293137
23.23797035 0.6918270588 49.41823196
17.617136 1.037340283 46.32131577
17.34460449 1.048775673 46.18022537
17.20757866 0.9667042494 47.77514648
21.97794533 0.6747769713 47.76515198
22.02767563 0.7476041913 47.42263031
21.85335159 0.575094521 48.49565125
23.38026237 0.7224174142 48.66156769
23.34018135 0.6583262682 46.52381897
21.89565277 0.6247870922 48.17240906
18.65000153 0.8859177828 46.53742981
18.56771851 0.8852753043 48.1014061
19.4849968 0.837716341 46.0527916
18.97996521 0.8657751083 46.04164886
21.39591408 0.5567738414 48.19776535
21.15087318 0.5764945745 48.12704849
22.86787415 0.6876028776 48.22298431
22.68044662 0.6782100201 48.4887619
24.19730186 0.8034675717 47.67648697
23.9474678 0.7496179342 47.4658165
24.25740242 0.7491576672 47.23538589
24.05986595 0.8067807555 48.12640381
23.63032341 0.7113320231 49.04388046
23.26523399 0.666362226 47.00350189
23.5950737 0.725610733 47.40109634
23.22772408 0.6902304292 47.46666336
23.4525795 0.7648172379 48.34115219
24.30224609 0.8326675296 48.00133514
22.3617382 0.9416613579 45.04011917
22.37411499 0.9637842178 44.62239838
23.0326252 0.717790544 47.22507095
21.18504143 0.788249135 46.59817505
21.44227409 0.8604338169 46.43453598
21.32253647 0.7945973277 46.85825348
24.14277458 0.7064222097 49.0357666
22.95771027 0.6813457608 46.90304947
23.91039085 0.692925036 49.42900085
24.52541351 0.6581872106 49.27492905
24.19043922 0.6697329283 49.45910263
21.57838249 0.5672263503 48.33043289
21.63736534 0.8328353167 46.67610931
17.71722031 1.032641411 46.95292282
20.53980827 0.8506956697 45.7760582
22.13641739 0.9921786189 43.46737289
20.11170959 1.015116692 44.61107635
20.54162979 1.020366907 44.48358154
20.79409599 1.023795128 44.5349884
20.75423431 0.9934444427 44.88237381
18.68748283 0.906544745 46.87593842
18.33730888 0.9668528438 46.66374969
21.67954254 0.9125764966 46.08954239
21.80218887 0.8726747632 46.3882637
21.65139961 1.000459194 43.19080353
21.38642883 1.005009294 43.29377365
19.98990822 0.8397780657 45.80067444
18.23481369 0.9569901228 46.36302948
18.4449482 0.9058974385 46.3826561
17.15723038 0.9948540926 45.64430618
17.47731781 0.9322444797 45.14367676
18.64499283 0.8773016334 46.225811
17.43738937 0.8922468424 44.78098679
18.07476044 0.9365549684 45.2791214
18.0972271 0.9855235815 46.19458771
17.97727394 0.9846461415 46.44670105
17.65460968 1.057995915 46.6598587
18.009758 1.00148046 46.82864761
21.10723305 0.8623133302 45.90867615
22.0644989 0.9137416482 46.08951187
21.90440559 0.9378111959 45.80728531
20.94265938 0.7623288035 46.72320175
21.7901516 0.7555490136 47.24095535
19.26677513 1.011184931 44.38079071
19.51692963 0.965203464 44.67142487
18.29475403 0.9279196262 45.30356979
20.35687637 0.9653568864 44.94511032
20.57904243 1.031346798 44.11205292
22.37387466 0.9745771885 42.93900681
18.06973839 0.92796278 44.96750259
17.7297554 0.9308732152 44.84011841
19.75470161 0.8971326947 45.37977219
20.17465782 0.8947784901 45.33911514
19.4296608 0.9113969803 45.12210083
19.6774025 0.8509449959 45.74364853
18.61194611 0.9710674286 44.08054733
18.38967323 0.9399064779 45.00527573
20.30972099 0.8818135262 45.57511139
22.50400925 0.9674186707 43.92842484
19.79676247 1.006927252 44.52987289
18.31677628 1.008092403 43.56230164
18.99438477 0.9925814271 44.50305176
19.77948761 0.9461635947 44.89933777
20.05200768 0.9346658587 45.04041672
21.14151382 0.9946671128 43.48639679
20.84907341 0.9909607768 43.51901245
21.31900024 1.001293421 43.66242981
20.5045681 0.9143313766 45.29003525
23.3891716 0.8622030616 43.44462967
23.41407204 0.8811278343 43.22747803
17.98218155 0.929453969 44.53649139
19.71149254 1.053052545 43.50468063
21.64695168 0.9305999279 45.79927826
22.8350563 0.7212331295 46.60433578
23.07521439 0.6628476977 46.62678528
22.64163017 0.9437038898 44.45189285
22.97673416 0.9021143913 44.53103638
22.9875679 0.6992684603 46.28749847
23.02223206 0.7907615304 45.81189728
22.66745377 0.7570593953 46.43309402
22.10178375 0.9548037052 45.45464706
22.45183754 0.9246112704 45.40357971
24.98215866 0.8171805143 47.54611206
24.93961143 0.8276138306 47.34268188
22.97676468 0.9069570899 44.88605499
23.19685936 0.8634640574 44.81887817
24.50473785 0.8234040737 47.86864471
24.4422245 0.8138433695 47.48386383
24.72969818 0.813757062 47.49469376
24.31249428 0.6369177699 45.32597733
22.70668221 0.9377056956 44.76908875
20.75405312 1.013850808 43.90896606
24.0375843 0.6386918426 45.87080765
24.17264557 0.6257029176 46.10678482
23.40188789 0.8386465311 44.61858749
23.37954521 0.8089287877 45.12314606
21.39959526 0.9009157419 45.96775055
21.87676811 0.9548228979 45.11859894
22.02511024 0.7583251595 47.13516998
20.37627792 1.046598911 42.20635986
20.17619896 1.070380688 42.00816727
21.33351135 1.043894649 40.8754425
22.79178619 0.9168630242 45.17593384
23.10692787 0.8552794456 45.07378006
23.95235825 0.6896262765 45.20062637
24.31489944 0.651450634 44.99510193
17.73626137 1.159562707 42.62245941
18.68425751 1.013428926 43.76008224
24.58727074 0.6652450562 44.51786041
24.82745743 0.6116591096 44.89529419
24.85979462 0.6537712812 44.65893936
24.58984184 0.6544857025 44.80528259
24.81977654 0.6486648917 44.38792801
24.01978874 0.6933085918 44.83192444
19.1915226 1.069714308 43.62379837
24.62242508 0.6364814639 45.09558868
23.50428772 0.8340052366 43.85425568
23.71430206 0.813028276 43.61061859
24.97472954 0.6460373402 44.09522629
25.19477081 0.642254293 44.47474289
22.385149 9.342414856 54.97409058
22.05688477 9.611605644 55.07077026
23.07205009 0.8287118673 45.37769699
23.29725647 0.758977294 45.53043365
21.51174545 0.9688138962 44.94494247
23.70465088 0.7549545169 44.93413544
23.78373718 8.937610626 55.07702255
23.67230988 0.7128136158 45.17049789
18.73884964 1.120121241 43.11083221
19.04104996 1.196362257 42.81973267
21.37913132 1.00116396 44.73312759
20.50907516 0.993866384 43.39157867
23.17915916 0.883218348 43.68831253
24.28676796 0.788685441 43.25306702
20.03876305 1.073655486 42.45808029
19.6110611 1.152701497 42.4380722
19.74361038 1.110766768 41.93989563
18.81432915 0.996666491 44.03953171
19.31660843 1.049140096 43.94662857
25.33709526 0.6776154637 44.0730629
17.67328453 1.275130153 41.53941727
17.89326286 1.261685729 41.20889282
21.616436 1.008830786 43.58646393
19.87548065 1.20946157 39.41507339
18.35818672 1.164745808 38.727314
22.98904419 0.9145663381 43.40325165
22.86395073 0.9351549149 43.08042908
12.69103718 3.8373487 41.14726639
18.19326401 1.209140301 40.26358414
17.72070313 1.249195457 40.2793541
20.15529823 1.201866627 38.11679077
24.61970711 0.6724706888 44.18977356
19.03423882 1.02291286 44.15565872
18.99921608 1.021647096 43.84129715
18.91156197 1.058029532 43.5019722
18.62907791 1.061879635 43.44773865
16.46154404 1.120341778 42.7830162
19.4387188 1.124618769 42.83693695
22.21891785 0.9771950841 43.23173141
23.05378151 0.9590662122 42.48379135
13.45168781 2.720641136 40.05104828
13.52432346 2.663238525 39.81058121
19.32591248 1.202187896 42.1880722
18.43642426 1.108810544 43.23026276
19.70879555 1.093822122 42.95387268
18.3512249 1.164568424 42.91509247
12.779212 3.685542583 42.89492798
18.29604912 1.213004827 42.60271072
18.02352142 1.224449873 42.46162415
17.53594208 1.243508935 41.89762497
17.80824852 1.296989322 41.86706924
18.33816719 1.283132553 41.30614471
18.13567734 1.292395949 41.43884277
18.61353683 1.205620885 42.61635971
18.31331444 1.273787618 42.23326111
15.02624035 1.225456715 41.608078
14.74863911 1.267986059 41.60209656
14.87112522 1.253328562 41.282444
14.59098816 1.311411858 41.34401703
14.31827354 1.441962838 42.54302216
19.89645958 1.043103456 43.2147522
20.33146667 1.017274261 42.9521637
21.10902786 0.9778184295 43.10445786
18.4131794 1.284724474 41.53649139
20.7190876 0.9728654623 43.14792252
23.39373779 0.9513466954 42.25618744
23.66871071 0.9592148662 42.42140198
22.6489315 0.9475492835 43.01251602
22.93800163 1.132740974 40.40245819
22.92815781 1.095092773 40.75263596
23.05823326 1.078320742 41.03204346
16.71333122 1.21512413 39.65107727
16.80577469 1.252259254 40.13031006
16.45346832 1.193399191 39.97393799
12.8945303 3.587634087 43.12122726
20.90875053 1.021992326 41.93287659
19.31347275 1.170441985 41.89575195
19.26343918 1.148103356 41.0016098
19.34600449 1.142800331 41.47602081
19.05839539 1.172911286 41.20185852
21.94605064 1.034314752 41.49891663
18.55816841 1.274506807 41.33063126
18.69328308 1.221822381 41.11991119
19.82110596 1.087191105 41.39272308
19.59853172 1.106518626 41.08074951
19.88111496 1.06776762 41.04327774
20.12117958 1.044292569 41.15744019
21.08372688 0.9996680021 41.37479782
21.31119347 1.018995523 41.7349968
20.99624443 1.010839701 41.6538353
13.19850636 3.099789381 43.401577
13.27667999 2.886193752 43.72430801
14.61843872 1.314830542 41.0593605
12.25729084 4.192801476 39.51076889
17.39312172 1.279023528 40.0892334
19.11584282 1.213570595 41.72172165
18.33831215 1.208545685 40.7677536
18.69579697 1.201468706 40.6973381
18.12827492 1.274089694 41.81312943
20.6258297 1.106408358 40.37861633
16.54602242 1.20044744 40.7165184
16.27363014 1.181858182 40.83875275
12.97449207 3.489471674 40.6396637
16.45096016 1.21374321 40.39649582
16.08859444 1.182141185 40.41862106
17.1281147 1.278764606 39.83720779
18.96577835 1.205568194 40.90597534
18.41568756 1.264351606 41.11392975
12.19913578 4.534694195 42.39282608
12.07862949 4.693754673 42.03830338
19.226017 1.186418056 42.52980804
17.30572891 1.205990076 39.11988831
17.61324501 1.191016197 39.2203331
20.37593842 1.092287898 40.61463928
17.42063713 1.242765665 39.35789108
17.09072304 1.223212838 39.40697479
15.22114563 1.218279004 40.87631226
15.15862751 1.208703995 40.491539
15.47869015 1.190623045 40.79263306
14.23495579 1.578310609 39.33192062
15.54611874 1.194353342 40.42394257
15.31357384 1.206090808 40.19882202
20.06852913 1.077189207 40.77751541
19.4632225 1.179623842 40.31810379
19.92084122 1.128176451 40.43260193
19.72844505 1.114966989 40.74179077
23.97865105 0.9587785602 42.19095993
12.02335072 4.727768898 40.66090775
23.15086365 1.045692682 41.32790375
19.17578697 1.184519291 40.66227722
25.67097473 0.9414551854 41.87392044
24.34147263 0.8653196096 42.86717606
23.91374588 0.939522922 42.49211121
21.46032143 1.178482771 38.84069061
21.54308319 1.103406787 39.13174438
24.44879532 0.9042001367 42.5060997
24.61616707 0.9284998178 42.15067673
23.95921707 0.8233657479 43.41802597
24.00406075 0.8575137854 43.02717209
24.11383057 0.9157602191 42.69033051
24.86412048 0.8030552268 42.94383621
24.39596748 0.9575127363 41.15283203
24.34602547 0.9496349692 41.32366943
24.10596466 0.9731387496 41.20954514
23.66165352 0.8458913565 43.23064804
19.94130898 1.077261209 42.82398987
19.73868942 1.116582751 42.69335938
21.65114784 1.011256933 41.50739288
20.47632599 1.037119627 42.48295212
22.77819252 1.101512909 41.00194168
22.66551018 1.14902389 40.61640167
12.43528557 4.128527641 41.89685822
12.27961063 4.365689754 42.12133408
10.40381908 6.312763214 41.18978882
10.29861832 6.393036366 41.49498367
11.50668049 5.376092911 42.3869133
24.12598801 0.9534564018 40.94419098
24.27853012 0.9362960458 40.98236847
22.13117409 0.9991453886 41.82736588
22.38110733 1.018118143 41.94634247
11.9964962 4.667882442 44.22064972
12.33478355 4.366600513 43.59046173
14.16553783 1.528848171 42.68822098
11.22346973 5.614458561 42.26440811
11.00293541 5.787840843 41.98831558
11.21601868 5.58654356 41.92869186
12.32491112 4.274767399 42.42886353
11.55517387 5.124101162 44.29852295
10.92556763 5.830700874 43.95560074
12.46812534 4.099720955 43.87055206
12.36264992 4.235316277 43.29409409
11.43178654 5.393742561 43.57658005
12.33757877 4.290911198 44.04953766
20.11633873 11.51414871 55.05865097
20.07726669 11.20957947 55.02755356
20.27182198 11.3467598 55.01753998
13.04270649 3.367028475 43.36273575
12.88215065 3.565482616 43.53895187
12.33247757 4.317162037 43.82963181
11.36626148 5.524811268 42.56105804
11.05948925 5.408716679 45.19732285
10.03082752 6.665756226 45.41073608
8.460672379 8.418561935 45.16211319
10.86843395 5.739562511 44.67241669
10.34189034 6.296067715 45.23683167
10.23378372 6.482079506 44.81960678
10.64775658 5.987541199 44.93469238
10.53084183 5.850877285 46.17258072
11.84518814 5.059165955 43.08507538
10.27615452 6.492047787 44.04966736
11.5844841 5.302023888 43.07637024
11.37629223 5.542015076 43.18424988
11.41160011 5.38938427 42.06687546
11.23343754 5.671400547 43.33429337
10.99278069 5.850023746 42.25853348
10.64177704 6.224242687 42.87146759
10.58433151 6.183607578 42.35161591
11.7598896 5.149796009 42.86159134
11.56185341 5.327623367 42.69924164
12.53035069 4.06588459 41.06015396
12.39226723 4.264046192 40.99514008
12.45257568 4.144782066 40.72568893
13.01475334 3.385128736 40.28058624
12.80390453 3.670750856 40.19268799
15.86617661 1.176243663 40.72502136
13.33374214 2.918332815 41.14071274
13.4042387 2.741728306 40.95606995
13.47712898 2.624185562 41.24226379
13.40154934 2.782521963 40.40528488
13.2707634 3.0338521 40.05766296
13.41380024 2.8346982 39.72422028
15.46132851 1.164736271 41.25379181
15.10119152 1.217406392 41.12840271
15.20337677 1.2284199 39.03571701
13.87886524 1.983623743 40.07997894
14.85103607 1.263373494 40.83777618
13.95157242 1.886492014 39.39283752
13.44241047 2.572383165 42.16456223
14.2251215 1.540676832 39.6821022
16.71583939 1.194751263 39.22848892
16.74826813 1.201972127 38.90041733
14.19450283 1.653774977 37.56095123
14.24708176 1.611207247 37.23081207
14.45245457 1.491396546 37.46552658
15.80366325 1.166682959 40.340271
13.01017952 3.147981167 37.99884415
13.93946552 1.809085846 40.69220734
15.02837372 1.245954275 39.23879242
14.98083878 1.252575755 39.07878113
14.99878502 1.221999764 41.89274216
14.08232021 1.679695249 40.54217911
13.91700268 1.809459925 40.93345261
14.39244843 1.510829568 37.81493759
15.73388481 1.158085942 41.74988174
13.5126915 2.460718632 41.80826569
13.49241924 2.540570259 41.54698181
13.70928001 1.973746538 42.89641953
13.59337711 2.276102304 42.86515427
13.7165823 2.026929855 42.61375427
13.49006462 2.535684347 42.58791733
13.9346714 1.784834146 41.70897675
13.74142361 2.036260366 41.68661499
14.69116497 1.271850586 41.88395309
13.84471703 1.82122612 42.76562119
14.00755596 1.667315245 41.99519348
15.32134628 1.183541179 41.77127075
15.16380119 1.192095041 41.42147446
15.96143818 1.14253664 42.0184021
14.13042068 1.562440038 42.46551895
13.98013973 1.668696165 42.63486862
13.39756489 2.587587357 43.7121048
8.021244049 8.37934494 48.38820267
11.62561321 4.987230778 44.56059265
16.26682854 11.50736141 55.41415024
10.15886116 6.494919777 45.65427017
10.32707024 6.254627228 45.63043213
10.2618618 6.335178375 45.85158539
10.08146 6.483599663 46.10979843
8.470252037 7.836782932 47.66098404
11.07676029 5.469499111 44.82785034
8.707030296 8.009192467 46.26271439
8.561946869 8.054301262 46.56026459
10.7436657 5.709662437 45.58628082
10.28225899 6.225283146 46.37620926
10.37791824 6.007559299 46.50114822
10.6304903 5.926768303 45.30416489
10.87367439 5.683243752 45.15564728
10.40781307 6.030310154 46.24060822
10.30725861 6.209369659 46.06740952
10.38732529 6.17509222 45.80765915
9.619995117 6.989611626 46.18972397
9.8256464 6.765151024 46.14938354
10.302742 6.080506325 46.80914307
7.927756786 8.671723366 47.40574646
8.030406952 8.606994629 47.16810226
8.332168579 8.034901619 47.59597397
6.448375225 10.26678467 49.54724884
7.511094093 9.305740356 49.05332565
7.840166569 8.717810631 47.77650833
8.486870766 8.092423439 46.7766304
8.877459526 7.853186131 46.09132004
8.872141838 7.944381714 45.69976807
9.913227081 6.719083309 45.77863693
9.267894745 7.589869022 43.63099289
7.031803131 9.861564636 47.73934174
9.449307442 7.205748558 45.83442688
8.461180687 8.298309326 46.21541595
8.383769035 8.287017822 46.67095566
7.231498718 9.829275131 44.8340416
6.821414948 10.02211189 48.34978104
6.262833118 10.43667603 49.23054504
7.714285374 9.007781029 47.47714233
7.679049015 9.125577927 48.50282288
8.370176315 8.570339203 44.8103981
9.275848389 7.497565269 45.02002335
9.08758831 7.752755642 44.95422745
9.076119423 7.475696564 46.41359329
8.724200249 8.104846954 45.98493958
8.621305466 8.229711533 45.69593811
8.801683426 8.081266403 45.43769455
9.531422615 7.226826191 43.29707718
9.22085762 7.525600433 45.68102646
9.135343552 7.68118906 45.2858963
8.95717144 7.913877487 45.39659882
8.897011757 7.95854044 45.12765884
9.373762131 7.368927479 45.35245895
9.689557076 7.063138962 44.60847473
9.705135345 6.92421627 45.79484177
9.065144539 7.757933617 45.5504837
8.036582947 8.930758476 44.5154953
10.04307842 6.717927456 44.72967911
8.713829041 8.182646751 44.92675781
9.1474123 7.753767014 43.63147736
7.359848976 9.607980728 46.31432343
7.299627304 9.692332268 46.49206924
7.199072361 9.871400833 46.31887436
13.4345417 13.17806911 55.08001709
13.59237957 13.06489849 55.15469742
13.41398716 13.36253929 55.09376144
7.82601738 9.161054611 45.30926132
8.207587242 8.664133072 46.1074791
8.648846626 8.198253632 45.31958389
8.003757477 8.959546089 42.5418396
6.708508492 10.13456535 47.79259491
7.181931019 9.780536652 46.95165634
6.991134167 10.05129242 46.95344543
8.024648666 8.828083992 46.43323898
7.226776123 9.814699173 46.56089401
7.282140732 9.696462631 46.68986511
7.663849831 9.124945641 46.94966125
7.52077961 9.319275856 46.92808151
7.806589127 9.025622368 46.53628159
7.372723103 9.509833336 46.94992828
5.247313499 11.43675423 48.2927475
6.791275024 10.05948639 48.08364868
8.235017776 8.667532921 45.82279968
7.568688393 9.222465515 47.87808228
7.510816097 9.361047745 48.17165756
7.109477997 9.817556381 48.16550446
7.362639904 9.581628799 47.93015671
5.963474274 10.96913338 46.96003342
6.11663723 10.75232983 47.15812302
6.971739292 9.920669556 48.5354538
4.849259377 11.59868145 47.485569
4.749054432 11.6827507 47.74735641
4.701073647 11.81927776 47.24406052
4.520896912 11.90276337 47.67391205
6.19005394 10.51935863 48.85264587
4.494924068 12.31201077 49.70124817
4.823545456 11.9478054 50.03956604
4.99926281 11.69575119 49.90472412
5.550632954 11.14378452 48.05815506
6.337736607 10.41898632 48.04084396
4.322668076 12.15036106 47.69495392
5.984613895 10.67886543 49.06464005
5.680484295 11.14258289 47.00921249
6.342238903 10.54787064 47.29910278
5.327275276 11.38798904 46.96794128
5.58246994 11.30611229 46.76844788
5.52011919 11.27133369 47.00205994
3.521607161 13.39666271 48.53190994
3.666935682 13.29144001 48.76103973
0.9313818216 16.11455345 50.04569626
0.9012181759 16.15190315 49.77955627
1.101801038 15.95855808 49.87435532
3.050797939 13.74476814 50.0153389
2.842711449 13.9499197 50.03157425
3.020811796 13.75686741 50.36751938
3.299697399 13.31984234 51.04837418
3.297271252 13.30536652 51.37928772
3.136580467 13.53389549 51.2921524
2.677254677 14.10969257 50.15948868
2.512018442 14.20457554 50.45908356
3.855109692 13.07113934 48.91849899
3.499287844 13.37177849 49.39151764
4.144510269 12.38307571 47.80566025
4.098571777 12.72297668 48.49496078
4.125863552 12.80098438 48.74866867
2.709849358 13.94365311 46.97958374
4.412013531 12.31364822 46.47840881
3.535449743 13.05320454 50.91915131
2.266269207 14.4588232 50.32014465
2.446661472 14.310359 50.06191635
2.316465378 14.40657043 50.67592239
5.611828327 10.8634243 50.78875732
6.528116226 10.28297615 48.05079651
2.185981512 14.45938873 48.0947876
2.156345129 14.32713318 47.72522354
4.537894249 12.21619797 51.0496788
3.013001204 13.82392693 49.5968132
5.167495728 11.4602623 50.23589706
3.678644419 12.82880402 51.20407486
3.976800203 12.60179234 51.1962738
4.179698944 12.45782566 51.05185318
9.474509239 15.82065868 55.277565
9.372951508 15.51131535 55.21671677
4.362248898 12.38402748 49.93612289
5.184636593 11.55112076 49.60310745
7.744674683 14.16216373 55.06713104
5.222054958 11.56213665 49.23161316
5.172668934 11.44365406 51.16585922
5.270236969 11.36066151 49.90654373
4.562889099 12.20029354 50.74089432
5.817421913 10.6293354 50.038414
4.374978542 12.36048317 51.11008835
1.962916017 14.74699879 50.19971848
2.095835686 14.61481285 50.49151993
5.744810104 10.69158363 50.63388062
6.005384922 10.47879314 50.3792305
10.04047966 6.723829746 44.08720016
1.789572001 15.00870705 49.64862442
13.77813244 2.084452152 36.61998749
14.01144409 1.798455954 36.46662903
15.23561668 1.256037593 37.73428345
15.5903883 1.240397096 35.95634842
15.3153286 1.267415404 35.88281631
14.51735115 1.461295247 36.00766754
14.01662254 1.781847 37.39657593
13.96134377 1.865169883 37.17590332
14.63777065 1.386444688 37.610569
14.86796093 1.320469141 37.71987915
14.64279079 1.395065546 37.92219162
14.25968647 1.617713809 38.14149094
14.4826231 1.458873868 38.08670044
14.46260452 1.478551507 38.35205078
17.21300507 1.174819589 36.60221863
12.53314114 3.990252495 41.51926422
16.71313477 1.186187863 37.52097321
20.48313141 1.161207318 39.99026871
18.40292931 1.184442639 37.271492
19.0353756 1.185248137 37.36629105
13.23832226 2.87862277 36.91556931
14.24939728 1.611264825 35.83488464
14.40466022 1.508791804 35.62212753
14.97017002 1.336310983 35.98221588
7.093885422 9.951688766 46.62410736
6.34190321 10.64288807 46.864151
6.555105686 10.41144848 47.06781769
12.68175411 3.49174428 38.63386536
10.84504509 5.891392708 41.20355988
10.39114666 6.345942974 40.725811
10.47650719 6.314282894 42.81605148
10.46651554 6.301884174 42.5479126
7.700212955 9.366815567 43.76150894
10.32867146 6.390576839 41.85282898
10.52915859 6.23207283 42.03927612
10.34631157 6.361161232 42.27334213
10.27359009 6.453454971 42.60547638
9.367878914 7.521404743 42.04080963
10.2609272 6.437315941 40.98478699
11.95304585 4.883933067 41.81887436
10.1381197 6.551818848 41.22451019
10.76228809 6.01583004 42.06928253
10.62939262 6.103458881 40.97573853
10.83500957 5.92350769 41.73713303
10.0981741 6.556364536 41.66357803
9.189744949 7.758921623 42.50654602
11.18812752 5.762318611 43.02677155
9.558776855 7.21579361 41.94737244
10.94004345 5.868483543 40.81355667
8.23443222 8.724004745 42.54771042
10.12580204 6.539319038 42.35223007
10.08564091 6.608813763 42.61964035
12.28190231 4.410261631 41.52711487
12.08357811 4.692738533 41.63986969
16.59083557 1.180462956 38.81399918
12.38254356 4.19630146 41.60861588
12.3874054 4.230195522 41.30191803
13.85333347 2.114956141 38.98044586
12.01589966 4.699815273 40.32516479
10.12079144 6.530717373 42.04065704
11.37868977 5.5565238 42.85335922
9.849974632 6.889914513 43.81391907
12.59318161 3.926290989 40.36814499
12.3496809 4.269631863 40.43669128
22.2949276 12.73956203 55.17194366
22.36655998 13.02129078 55.13827515
22.0769577 12.90220356 55.1832962
8.545807838 8.35316658 44.76723862
8.903561592 8.142778397 42.10833359
8.981184006 8.089138985 41.82445526
8.770545959 8.309793472 41.9081955
8.068740845 8.993296623 43.30576706
7.660047531 9.436325073 44.02891541
7.718131065 9.282121658 45.06371307
8.309767723 8.675123215 44.01477051
8.169104576 8.8839674 43.66231155
8.864182472 8.036694527 44.31073761
7.650385857 9.378232002 45.3524437
3.98382926 12.61161709 47.71854401
3.828120232 12.84395504 47.58800888
3.938605309 12.66765308 47.31933212
8.480445862 8.459000587 44.37007904
8.249660492 8.729428291 44.45586777
6.296218872 10.77465248 44.6098938
6.479272366 10.58059025 44.5474472
7.728257179 9.264467239 45.5952034
8.688757896 8.188903809 44.52550125
5.072780132 12.00877285 45.81842804
5.128274441 11.86048889 46.21074295
4.862679958 12.06466007 46.15378571
6.657382488 10.38759518 44.88345718
6.865382671 10.21733665 44.95891953
6.84291935 10.21770096 45.20016861
7.150971413 9.939301491 43.23880386
7.364145279 9.703072548 43.08748627
6.564494133 10.52966022 45.21762848
7.382255077 9.597967148 45.36304092
7.510202408 9.462034225 45.69829559
7.282073975 9.686841965 45.97983932
7.7258358 9.249982834 45.92614746
6.748041153 10.25992107 47.01025391
7.307087898 9.670938492 45.67104721
7.015889168 10.04613781 44.96124268
7.143918514 9.875296593 45.20478439
6.456717968 10.61587906 44.88041687
6.296151638 10.81435204 45.05659485
7.196660519 9.807530403 45.49303055
7.131452084 9.888087273 45.71419907
6.998431683 10.05513573 45.51408768
6.87799263 10.17450714 44.71287155
5.375822067 11.82044506 45.85890579
5.421439171 11.62969685 46.2463913
6.185671806 10.99066448 45.32530212
7.364519119 9.662236214 45.03417587
7.517092228 9.600546837 44.2706337
7.818062782 9.2040205 42.76353455
7.529716969 9.513203621 43.22286606
6.915300846 10.17106724 43.27632141
7.617451191 9.441915512 43.47045898
9.171980858 7.81840992 41.82268906
9.292337418 7.684584141 41.55887222
9.099248886 7.910713196 42.1548233
7.396735191 9.685061455 43.37773132
9.078948021 7.985726833 41.538517
7.065778732 10.04439068 44.08034515
7.020559311 10.10043144 43.68112946
6.617465973 10.44629955 46.83426285
4.151913166 12.40137959 47.43135452
4.445480347 12.03586292 47.4552536
5.920163155 11.20928955 46.33334732
5.669638634 11.39478588 46.40947342
6.024894714 11.25408173 45.3298378
4.875750542 11.89676571 46.60599518
3.018275261 13.67373371 48.12164307
2.993510485 13.58019638 47.80036163
2.772362947 14.05192089 49.67778778
2.744740486 14.07370853 49.34407425
5.069107533 11.61530972 46.89171982
3.313779593 13.49716568 48.27305984
3.306074381 13.57866192 48.56742859
3.093193054 13.71023846 48.44368744
2.917633772 13.93702984 49.1968689
2.654546738 14.1702261 49.87411499
1.706282735 15.24860001 49.10604095
1.526134968 15.23818588 47.57740402
