# .PCD v0.7 - Point Cloud Data file format
VERSION 0.7
FIELDS x y z
SIZE 4 4 4
TYPE F F F
COUNT 1 1 1
WIDTH 1338
HEIGHT 1
VIEWPOINT 0 0 0 1 0 0 0
POINTS 1338
DATA ascii
8.639993668 9.875495911 17.45185852
6.18746233 11.39317322 17.28233147
5.867827892 11.54748344 17.10783195
3.133762836 13.85989571 15.65185547
3.343360662 13.49692631 15.5981102
3.265227556 13.5859623 15.9643364
6.867444038 11.49655056 15.18870163
6.601221561 11.57782364 15.36075592
4.898245811 12.08166885 14.14829636
5.111240864 11.95432949 14.71517754
4.74916172 12.16824055 14.39190292
4.744241238 12.08528328 15.45618248
4.268065929 12.42491341 15.26071548
6.197913647 11.64086151 15.44203949
5.61517477 11.74531269 15.28369713
3.071167231 13.945014 16.50336075
3.205873013 13.6518364 16.32779121
4.200492859 12.29964924 16.62214088
4.80469799 12.05547047 15.11483192
4.886890888 12.0216589 15.30220604
5.054266453 11.95761967 15.32187843
6.196177483 11.39561272 14.57736206
6.107611656 11.57980919 15.03398323
6.52327776 11.12697983 14.12991524
6.181865215 11.28526115 13.42670918
7.967222691 10.04917336 10.90205765
7.95890522 10.10456657 11.36885262
7.783017635 10.23132992 11.06243134
5.300607681 11.84785938 14.2440033
6.361816406 11.60334682 15.19636154
6.838450432 11.09059715 14.57132149
7.847203255 10.31070232 13.18081856
7.853055954 10.2060051 12.80292702
7.256160736 10.82900143 12.62583733
7.609510422 10.43845558 12.44021416
10.15228271 8.838816643 11.57688332
10.42413521 8.691304207 12.04650211
10.11147976 8.904389381 12.07055283
9.657258034 9.089766502 11.71632767
9.114465714 9.259472847 15.00960159
9.343783379 9.04410553 14.7760601
8.814271927 9.584231377 14.78837776
8.711952209 9.612411499 13.82827091
8.359629631 9.911563873 13.48161125
10.56833172 8.29076004 14.28487396
8.012965202 10.25631237 13.44454765
8.061479568 10.0691328 13.08238316
8.588375092 9.614453316 12.95987415
9.407320976 9.12975502 13.74752808
13.22389889 6.178202629 13.38154507
8.067322731 9.964438438 12.70449162
7.374604702 10.72008801 12.03203964
9.037448883 9.353404045 13.62489319
7.918849468 10.11719227 12.34982491
16.86355591 3.803193569 12.37800598
11.94832325 6.926426411 12.88289642
2.399554968 17.80685616 13.06570625
2.366445303 18.1092453 12.82754707
2.370234966 17.79769897 12.60460663
8.309599876 9.830610275 12.84604168
8.55180645 9.569378853 12.43321514
13.16947937 5.953033924 12.65756512
10.72555923 8.283467293 13.37538147
9.897396088 9.011265755 12.3680563
10.4259758 8.674404144 12.55586529
14.15607548 5.882871628 13.90939236
17.2990799 3.035995007 14.12965393
17.29401588 3.056582689 13.22178268
8.22286129 9.854922295 12.37119102
17.06206894 3.357371807 13.34513187
17.16430664 3.201747179 13.75089073
8.288508415 9.49564743 9.922868729
8.125296593 9.726764679 10.12462139
7.931524754 9.673401833 9.620920181
28.54115295 2.574141026 11.64332199
29.09249878 2.515915394 11.85068893
28.76387215 2.532025814 12.18688583
8.968655586 9.280044556 12.10557365
11.95486736 7.18951416 15.67500114
17.00380135 3.459300995 13.73068523
11.41242027 7.632499218 14.42572403
7.072471619 10.94988251 11.63354015
7.339398861 10.68822765 11.39439297
10.95549202 8.134284019 12.54355907
9.314146042 9.130233765 10.70284748
9.368864059 8.942976952 10.38406467
9.615522385 8.953396797 10.61400127
2.605358362 14.77891922 13.93636227
2.628456831 14.78812504 14.35409737
4.097094536 12.63461781 13.89005089
3.938604355 12.72495651 13.69184208
5.859879017 11.50216675 13.00893021
7.187144756 10.93708229 13.5670042
2.257426023 18.73138428 15.32723999
2.35478735 18.47724342 15.91070938
4.686367512 12.24506378 13.60346699
4.220085621 12.53520966 13.58372593
5.138678074 11.96475601 13.78041172
4.146769047 12.61093807 14.10436058
2.53785181 14.96535206 11.77484608
2.463177204 15.02785206 12.40645599
6.963329315 10.95873165 13.887887
6.173840523 11.30226803 12.87391567
5.952826023 11.4622097 12.64068031
4.959303856 12.11801338 13.20866394
2.45819521 15.16028595 11.16648197
2.601800442 14.89343739 10.81236267
2.647401094 14.8301096 11.35958004
8.282200813 9.773457527 11.12129116
8.738239288 9.443758965 11.43053341
6.408599854 11.15535355 13.08296585
3.276634693 13.59924984 12.15089798
3.231862068 13.72145367 11.75881386
3.466181278 13.35807323 11.87879276
6.141695976 11.40143776 12.43562412
6.480487823 11.31300926 12.14209652
7.080495834 10.94846916 13.07291698
2.109430075 18.67985344 12.37905788
3.794578075 12.99081135 11.65250969
3.942810535 12.84532356 11.25371838
4.213783264 12.63888454 11.56818485
2.639736176 14.73628616 13.53232002
3.519361258 13.29231071 11.47192192
2.975859404 14.2162571 11.66456795
2.328121424 18.38268661 15.55978394
3.000992298 14.07388973 12.79077816
3.13354516 13.83600426 13.12535954
3.150738716 13.80690002 12.48009014
3.640043259 13.04010582 13.22656631
3.050964594 14.01180077 11.98548031
3.186223745 13.80034447 12.09812737
2.774172306 14.46594238 13.48980522
3.775908232 12.91040325 13.62744904
2.304587841 15.39593315 13.45005703
2.192512274 15.7284708 13.42296696
2.270900726 15.61658573 12.92367744
2.435210466 15.06308746 13.60738182
3.81092 12.90279388 10.85208321
4.039741516 12.73312378 10.88468266
2.211257696 18.68179131 12.71878338
3.000254154 14.09566879 10.53046227
3.072477818 13.99949265 10.87419605
3.550133944 13.21109009 13.79419994
6.033353329 11.65343094 10.76782608
2.741161823 14.5217762 13.78285885
2.781941175 14.47177505 14.17570496
4.578843594 12.22870636 14.72722244
4.425794601 12.37192917 14.08511925
2.007843733 16.45775986 14.42698097
2.194896698 16.19846725 16.01678467
2.25857091 15.79096794 16.05073166
2.225953102 16.06324959 16.43297195
3.386652231 13.46505928 14.12903023
3.219432831 13.76838112 14.3315506
3.2151227 13.75159836 14.79754066
3.082295418 14.01231003 14.59599304
3.959791422 12.43938732 17.12308884
3.699123383 12.81279945 17.07352066
3.74994278 12.80962944 16.42336464
3.439813614 13.41486168 14.608675
2.220285177 17.68238449 11.25213337
3.324193954 13.46222496 17.83916092
3.313444376 13.45279121 17.5083065
2.302955627 17.2756176 13.80978203
3.852423191 12.86216831 15.27828407
5.26054287 12.044734 11.14770317
2.312072754 17.29465675 14.38468361
2.157334805 15.85519218 15.11271858
2.071399689 16.31237602 14.81625175
2.655543566 14.74072456 15.65753937
2.786246538 14.51974297 15.48273849
2.770671129 14.53921032 15.88399124
5.242506981 11.99934292 10.75133228
2.236792803 17.29099083 15.6146183
2.207586288 15.73909569 12.40136433
2.300868988 15.42971706 12.43124485
2.385872126 17.93684387 14.53075409
2.319415808 17.83206558 15.02772331
2.372321606 18.16314125 14.77708817
2.175583601 18.85422325 14.67465401
2.248734474 17.05873871 14.72578049
4.600843906 12.2018671 15.12285805
3.20571208 13.77095985 15.24219322
3.036685228 14.09122372 14.9352932
2.360095739 15.29873466 15.05948448
2.483261824 15.06463432 14.95222664
2.419947147 15.20273399 15.31643295
2.262374878 17.33390808 15.05692863
2.164436579 16.77388382 15.02544212
2.191935062 16.92733765 15.53157234
2.370604038 18.07648277 16.23980141
2.335644245 17.66335106 16.33246422
2.399214506 17.89200401 16.74482918
3.086421013 14.00523376 11.60353184
2.385815382 17.80941963 13.97636318
2.026716948 16.54646301 14.09202194
2.498146534 15.05138779 11.40413761
2.39266634 15.22626019 11.48650551
2.120103836 15.97493458 13.76661873
2.141707182 16.09007645 13.20973587
2.164313555 16.50342751 13.03020191
2.203356266 16.20818901 12.55833817
2.237052917 15.59793758 12.17506218
2.969926357 14.20909786 12.37458992
2.311552286 18.43119431 12.94726181
2.228489161 16.40863419 11.93463993
2.228943348 15.87709904 11.97749996
2.362262726 15.21224976 12.77629757
3.249585629 13.64667702 10.84740353
3.19240284 13.78464508 11.25504112
3.578379869 13.12183952 10.6872015
3.742675304 12.92674446 10.5075531
2.762381792 14.56346512 14.57771492
2.632781267 14.82051468 14.77461433
5.054483891 12.11901283 11.11154175
2.808266163 14.47732449 14.99185944
2.62955451 14.83976936 15.26270485
2.292825937 18.23896217 15.25429344
2.307133198 17.95971298 15.49524689
2.280117512 16.85394478 12.34934139
3.281484365 13.55476379 10.53227425
3.140869141 13.82521725 10.53136349
2.921789646 14.26986313 14.57579231
4.201283455 12.57395935 14.47303772
3.258906364 13.6896143 13.94884396
3.023816109 14.12152481 14.2280941
3.080587387 13.92567444 16.05869293
2.936494827 14.22264862 15.79244423
2.301044226 16.77547455 11.83632469
2.34986186 17.06689453 11.9186306
2.363019705 16.9981823 11.60623932
2.227490902 15.7364254 11.53412247
2.297940493 15.41057873 11.89972496
8.080802917 9.984718323 11.92692566
2.541229963 15.01670933 16.47278786
2.702246666 14.7134552 16.22688484
2.766919136 14.60416508 16.63819695
4.114666939 12.49470139 15.97032166
4.024747849 12.6500864 15.65147209
2.301843643 15.40066338 15.44502831
2.256035089 15.61425114 15.58525467
2.964688778 14.18012428 15.34496689
2.263496399 15.49991989 14.96332169
2.286859512 15.48630142 15.24796486
2.154344559 16.59963226 15.51401901
2.611504555 17.21261215 18.21904373
2.248119593 15.54327869 17.89105797
3.925621748 12.69016171 15.97628593
2.655023098 14.78640842 15.92369652
2.319131851 16.76403236 16.86441612
2.352993965 17.14110374 16.74965477
2.120577097 16.33440781 15.29668427
2.166035652 16.03179932 15.62165642
2.157405615 16.3566494 15.6902504
2.271482706 16.26210403 17.33547401
2.254033566 15.92444229 17.20417023
3.199670076 13.66752243 17.17089272
2.909407854 14.30123329 16.26197815
2.916334629 14.24816227 16.79273033
2.248450756 15.63229465 17.42582703
2.269135952 15.57667923 17.04591179
3.080568314 13.94125271 16.94522285
2.34120369 16.50620651 18.6777935
2.737859249 16.99040985 19.39673996
3.533810854 13.0836792 16.89891624
3.555541754 13.07967186 17.4276104
2.422393322 16.90662575 17.64750481
3.428567171 13.25128841 17.73474693
2.391147614 18.29857826 17.10167694
2.669538975 17.63494301 18.54413223
2.755048275 14.57425785 17.17175293
2.944504738 14.22122002 17.23178291
2.748935461 17.85246086 20.19520187
2.806572437 17.66873932 19.52147865
2.232051849 17.05774117 15.991436
2.308221579 17.26332664 16.35758972
2.276885986 16.31493568 16.89161682
2.274709463 15.86882496 16.8242321
2.330312014 16.61591911 17.26131439
2.301280737 16.58394623 16.667099
2.239674091 16.4502697 16.43196106
2.343536139 15.53700161 16.54742813
2.610955715 14.87122536 16.90547371
2.292059422 16.82703209 16.44746208
2.394464254 18.76519775 16.30460739
2.519991159 17.00363159 18.12105942
2.202429056 16.58559799 15.97237587
2.400913 17.63581657 17.03204346
2.359433413 17.49217987 16.68314171
2.355567932 17.64509392 14.57870674
2.440036297 15.2239418 16.97573471
2.331163645 18.1396904 15.73600006
2.216722488 16.30634308 16.21332169
2.443726778 17.60287094 13.16954994
2.317722082 18.46227646 14.76370049
2.35033989 18.18999481 14.38145065
3.984143496 12.73407459 10.4938736
4.933617592 12.16308117 10.90772247
2.237138033 18.84487534 13.46890926
2.399451017 18.2431469 16.63492012
2.388039112 18.41413498 16.37109947
4.073825836 12.58595085 10.05932236
2.183191538 16.59211922 12.6952467
2.306078196 15.48985672 11.23388577
3.210646868 13.6641798 10.07749939
2.664632559 14.78543854 9.827754974
2.810575008 14.45597744 9.716920853
6.698654175 11.2457695 11.51164818
6.277239323 11.52557945 11.55182648
6.99298048 11.02570343 12.11076832
2.447880983 17.76996803 13.390975
2.354872465 17.27730942 11.40874958
2.32618165 16.97593117 11.21267891
2.38441968 17.26359558 11.73680496
2.375846386 15.32882118 10.78002644
2.266027689 16.60892868 11.397789
4.548714161 12.34494305 10.03362465
4.868608952 12.16777706 10.07508373
4.62419796 12.35690975 10.443717
3.027109146 14.03995323 10.19395828
3.370111465 13.513587 11.51647377
4.439411163 12.45732594 10.31585979
4.329464436 12.36052418 9.755428314
4.292210102 12.51143265 10.18234539
4.704801083 12.3327446 10.87511826
4.950281143 12.17964745 10.52856445
4.810593605 12.26244545 11.21404743
4.647556305 12.35887241 11.6148634
2.276994705 17.71752357 11.66501713
2.0609622 18.08784866 10.92189217
6.550113678 11.27109432 10.60265446
2.709163904 14.67049885 9.466376305
3.14302206 13.75431347 9.134667397
3.01614666 14.03780365 9.109591484
9.179039001 9.222560883 11.67576408
6.319139957 11.49606037 11.08023643
6.59335804 11.27036858 10.90658665
5.719585896 11.31345367 9.305766106
6.967199326 10.97450829 11.02847862
7.68420887 10.37598324 11.80858707
5.892979622 11.5582037 12.38373566
12.2605629 6.465694904 10.99663162
7.4545784 10.0815649 9.824643135
7.295600891 10.21762657 9.89255619
7.301439285 10.11291885 9.51469326
5.026535988 12.13867092 11.42594624
4.727880478 12.35754681 12.17934132
11.54942513 7.50771904 13.07566357
13.58206558 5.758750916 12.46378136
13.74141216 5.727322102 12.81715298
16.11256981 4.660767078 12.09111786
16.40346718 4.467267036 12.42482567
9.235918999 9.122983932 12.28773499
13.09914875 6.00116396 11.05016136
12.63589001 6.279353142 9.788829803
11.31617546 7.374546051 10.62726402
11.4337492 7.222311974 10.76482487
15.00755882 5.35684967 12.8971014
14.82004166 5.430836201 12.99119377
14.62796879 5.495286942 12.79780197
16.8918972 3.657136917 13.90266228
16.88867378 3.660808086 13.50423527
17.28170204 3.025637627 11.36189842
10.3120594 8.634242058 11.1097374
15.05963135 5.255021095 12.46818447
14.68649483 5.370524883 12.27918434
15.01208591 5.223386765 11.74368668
16.63269043 4.14003706 12.52344799
16.83451462 3.78680706 12.67030239
14.78084755 5.486775398 13.24083042
15.20447159 5.279097557 13.24485874
13.23635674 5.900266647 12.22657681
16.5250473 4.211634636 10.78858185
16.12625313 4.530784607 10.62605
13.88825321 5.784046173 10.22505093
13.6378336 5.822973251 9.862851143
14.28477669 5.639356136 9.812142372
8.053971291 9.492274284 9.026321411
14.36508656 5.637998581 10.37663174
10.68807697 8.426071167 12.16233921
14.32898617 5.578378677 11.35687065
14.45709705 5.458445072 11.95836449
11.22980022 7.646448612 12.01464748
11.39725113 7.32026577 11.67904568
12.82005692 6.12834692 11.40152931
8.941833496 9.304607391 10.6690731
9.129113197 9.253503799 10.70802975
9.159763336 9.275840759 11.05818939
10.60633373 8.286748886 11.15449238
10.43068314 8.390637398 10.7150116
10.64222622 8.122621536 10.83852959
7.61139822 10.3904047 11.17661285
7.688462257 10.26534176 10.78822517
2.471660614 15.18054485 10.38892078
6.545959949 10.71439648 9.471568108
6.489292622 10.67929649 9.058636665
6.686447144 10.57867908 9.273355484
6.737550259 10.69566631 9.931043625
3.96284771 12.56493664 9.14470005
3.985685825 12.59700012 9.695479393
9.597070694 9.081143379 11.03810406
9.025085449 9.179448128 10.32411671
9.026741982 8.780243874 9.170394897
8.995898247 8.908177376 9.507684708
8.766499519 8.996090889 9.186869621
8.544084549 9.547987938 10.86077023
8.233037949 9.751434326 10.64082146
11.18486691 7.513784409 10.51385021
9.900131226 9.022128105 11.25958252
10.9821291 7.696239948 10.5439558
9.302659035 8.79974556 9.861525536
10.81781483 7.891310215 10.72360992
8.786602974 9.391320229 10.86924839
9.943564415 8.871114731 10.87610912
10.19169903 8.632621765 10.63974857
10.09270096 8.911970139 11.18686485
3.487453222 13.19445515 7.686632156
3.375424862 13.28039932 8.190825462
8.591048241 9.482286453 10.41053677
6.230422497 11.42536354 10.42816353
18.30113792 2.143332243 10.63440514
15.86331844 4.72022295 10.86444855
16.13510132 4.572671413 11.33411598
15.5353384 4.929938316 11.15670204
13.12870502 5.98746109 11.37822151
13.72866154 5.8539114 10.89125443
11.96189785 6.668963909 10.86351967
2.300490618 17.41059685 9.821359634
2.231564522 17.63054657 10.43038464
2.264258146 17.84412766 9.73913002
16.14912415 4.705842018 12.6177702
15.65916634 4.905031204 11.89206886
27.49880409 2.548925638 11.21938992
27.57517815 2.604234934 10.89811039
15.66774464 4.811184883 10.40574169
15.01913166 5.2510252 10.1692276
15.03363705 5.195503712 9.745872498
12.21201038 6.509868622 9.917883873
12.34254265 6.439186096 10.43049908
11.97402382 6.676040173 10.19688034
16.08324623 4.508656502 10.18904877
14.9458189 5.326748371 10.68984413
20.24373627 2.339105129 11.92452335
21.82892036 2.322029591 9.609605789
22.23305702 2.317901611 9.683492661
21.98797417 2.313426733 10.09605503
16.50950623 4.374109745 12.63072586
16.5717411 4.184374809 11.3579216
16.75004578 3.979485512 11.02101707
16.99836159 3.606288671 10.98375702
17.15947151 3.414915085 10.40567589
17.28602028 3.042434692 10.89592743
11.68696976 6.947648525 10.54981995
11.61956215 7.046102047 11.24692535
6.551145554 11.17972183 10.07036304
6.48925972 11.06888008 9.968319893
7.755438805 9.950425148 10.00195694
10.24009132 7.800980091 8.259185791
10.48127556 7.631118298 8.378645897
10.24923229 7.820052624 8.834130287
10.19397926 8.442583084 10.32867622
14.74543762 5.431041718 10.07671833
14.69491673 5.395811081 9.707255363
13.84203815 5.765583038 9.38960743
10.18502331 8.288823128 9.952816963
10.43069267 8.001040459 9.805351257
10.51678371 8.157165527 10.34725094
8.409445763 9.404845238 7.467143059
8.558595657 9.08727932 8.641285896
5.985131741 11.42818642 10.0872488
6.863692284 10.46515369 9.468764305
6.861302853 10.54331207 10.11205292
2.321445465 17.49071503 11.6357708
11.02183914 7.594612122 10.02817249
9.217693329 8.679707527 9.341691017
9.183353424 8.691189766 7.972723961
2.981778383 14.06483936 8.627098083
2.848193884 14.39410019 8.824784279
2.85785532 14.3518877 8.247067451
6.183066845 11.25903702 9.902752876
6.025518417 11.14614296 9.504411697
2.295153618 16.73716354 10.77332878
7.593911171 9.909743309 9.604421616
2.161621332 16.27166176 8.265182495
2.274108648 15.81275558 10.13129044
2.232435226 16.19342041 10.49296665
5.187178612 11.97743416 10.22746563
5.923945904 11.1213522 9.031608582
2.913093567 14.27752399 9.989605904
2.992759705 14.06700325 9.711463928
2.314457417 15.54628658 10.43500805
2.429892302 15.29078197 8.755309105
2.385119915 15.42859173 9.249746323
2.338506699 16.83272743 9.858623505
2.317840338 16.88835716 10.23851013
2.147006273 18.10096169 10.02288055
2.541192055 15.04238319 10.06809616
2.48570323 15.13958645 8.458649635
6.363964558 10.96868992 9.676082611
6.254864693 10.93079185 9.270903587
9.85019207 8.146458626 7.918154716
9.905983925 8.010829926 8.508031845
8.231230736 9.378765106 9.221739769
10.55490398 7.675583839 9.165834427
10.85600662 7.521570206 9.210086823
10.71640873 7.716229439 9.563405037
2.199084044 15.58089161 6.241163254
2.430119514 15.10935116 6.294826508
2.344018698 15.34282589 6.662600517
2.227017879 15.57680988 6.813299179
2.312105894 15.43472767 6.977777481
4.30662632 12.32846069 9.204662323
2.125786304 15.64103699 5.875292301
2.115386724 15.73622704 5.965696812
2.370537758 15.18249798 5.90481329
6.172085285 10.88286686 8.79528141
24.05499458 2.376307249 8.30932045
23.98058891 2.415980816 8.807823181
7.72767067 10.37808037 5.574777603
8.230000496 9.804680824 6.364187241
4.157158852 12.54145145 7.609235764
3.77119112 12.8302393 8.153974533
3.807035685 12.91271973 7.306755066
3.574575901 13.24360752 6.809738159
2.823349714 14.30832195 2.578563213
2.837818146 14.26837444 3.041728497
2.604979992 14.51021957 3.009930611
5.350972652 11.65389347 7.099988937
5.430387974 11.82463646 6.091551781
5.925180912 11.23812962 6.948542595
2.35982132 13.47169399 0.4944626093
2.122635126 15.06541157 0.4667388201
3.207311153 13.40751266 0.392565608
3.017868757 13.38653755 0.3093768358
3.07575655 13.56957245 0.4122046232
2.011661768 13.93795681 0.3692239523
1.68665731 13.77724361 0.283369422
2.01781249 13.93783855 0.412673831
2.030454636 13.91480637 0.3664189577
51.21190262 26.30116081 0.192143321
51.16127014 26.52807236 0.177994132
2.06913805 13.90456295 0.3828936815
50.53648758 23.80466461 0.1070371866
4.03015089 12.72314072 0.6251202822
5.988978386 11.09559631 0.7999950647
6.021496773 11.08546448 0.7730439901
6.041396618 11.09837151 0.7923330069
6.092669964 11.06505108 0.7625864744
5.897890568 11.10308552 0.7911487818
6.131362915 11.05480957 0.7790805101
5.958934307 10.78100586 0.7149080038
2.501108408 13.39486122 0.451449275
2.723357677 13.38286781 0.374565959
2.642395258 13.31800842 0.4084261656
2.49429512 13.20138645 0.4518808126
50.70141983 27.91731834 0.1379908323
50.45999146 27.73601723 0.1284924746
4.316879272 12.73653793 0.7605236769
4.520879745 12.82941914 0.9747520685
4.170501232 12.84953499 0.7822290659
4.240614891 12.79309559 0.7496587038
36.57672119 31.09089279 0.282451272
4.716259956 12.87315273 1.234410882
2.588964462 14.52866459 1.017759204
2.55195117 14.65671635 1.311618209
2.460972548 14.77607727 0.9705978632
7.529333591 10.8890419 1.615939021
7.889023304 10.73770237 1.695958495
2.700098515 14.39937019 1.244986176
2.899902582 14.21333885 1.569829106
4.571765423 12.57966518 0.8558524847
4.439789772 12.52528 0.7863479853
4.533763409 12.40952015 0.7723041773
4.012247562 13.30661964 1.360621572
3.742041349 13.46011734 1.533447146
2.674374342 14.4911747 1.60351193
5.971869946 11.61056232 1.136268497
6.093147755 11.7829504 1.4292835
5.032606125 12.61066532 1.342632651
4.901065826 12.77274799 1.362271905
4.763166428 12.6956234 1.116283059
4.298729897 13.34287453 1.629088283
3.310208321 13.83508587 1.664055228
3.11390543 13.99460316 1.604471326
2.313605785 15.12345409 2.965454102
4.40561533 13.30863476 1.990160108
4.574859619 13.21212101 1.632756352
2.702563524 14.46425056 2.042551041
2.667277336 14.30493069 0.8505767584
7.307779312 11.09464931 1.648873687
7.35096693 10.96649933 1.398426175
3.880811214 13.20656204 1.024961829
2.356268167 14.88242626 0.6537524462
2.405270576 15.0391531 0.9350880384
2.283968687 15.24075603 0.6652406454
2.159795046 15.89898777 6.846123695
2.950636625 17.96582222 2.037606716
2.672765732 17.26188278 3.450420856
3.168041229 13.88417435 3.324891567
2.946501493 14.08980083 3.357831001
3.115987062 13.97043037 2.86735487
5.629009247 11.26975727 0.8530722857
5.318184376 11.33854103 0.8321865797
5.234255314 12.39213657 1.290456653
5.533994675 12.22490406 1.445662141
5.134206772 11.4978447 0.8595017195
4.835991383 11.91758347 0.8155099154
4.924173832 11.64434147 0.8240927458
5.158090591 11.81254196 0.9011582136
3.574992418 13.62874222 1.935096622
3.48041296 13.67832661 2.547393322
5.135044098 12.30476856 1.06091845
3.967754126 13.03199291 0.8123348951
3.883101225 13.01654148 0.7138510942
3.889289856 13.01643848 0.7572673559
3.691870451 13.13989735 0.6756323576
3.786936998 13.0601902 0.6836923361
3.901903629 12.99338436 0.7110463381
2.874017477 14.05025291 0.8197082281
3.028604269 13.76996613 0.6634098291
6.449080944 10.8055439 0.776304841
8.026174545 10.4937849 1.431481481
8.21003437 10.59660816 1.759469867
8.755821228 9.856637955 1.278865457
8.934854507 9.972790718 1.452468514
4.260287762 13.34586143 2.366028309
3.09696722 14.00087166 2.116687298
9.5546875 8.730101585 0.9154263735
8.574795723 10.40911198 1.860815883
8.389962196 9.634070396 1.132300496
8.05413723 9.726091385 1.070803046
5.526968479 12.55571842 2.156691551
9.083532333 9.295755386 1.096527457
8.811362267 9.354257584 1.092154384
8.847438812 9.0554533 0.97527349
7.132246971 10.18838215 0.8078304529
7.152147293 10.20129776 0.8271149397
7.071894169 9.956054688 0.793887496
7.041150093 10.19586182 0.7990082502
7.021250248 10.18295097 0.7797142267
7.119624138 10.21143341 0.8540612459
5.732322693 11.02279377 0.7265158892
4.822947025 12.09817505 0.7957268953
4.845718861 12.0028162 0.7921546698
4.764372826 12.09553051 0.7599533796
3.983249187 12.90066338 0.7432240248
4.054441929 12.88027191 0.7327810526
4.113025188 12.88293266 0.7685593367
6.273766518 10.64001083 0.7350171804
6.288580418 10.68908596 0.732993722
6.121218681 10.75312519 0.713277936
6.270880222 10.7482996 0.7578784227
4.797828197 13.14716148 2.043180466
5.184288025 12.82824898 2.118832588
21.00754738 2.383481741 8.887625694
20.97180176 2.397289753 8.516163826
16.08982277 4.018241882 4.757158756
15.72994232 4.30427599 4.478081703
18.59295082 2.273643494 4.940837383
16.14852333 3.712007999 1.778108716
2.283812523 15.5340519 2.793601036
2.274548769 16.5563221 4.393256187
2.425596237 16.54912949 3.440366268
2.244760275 16.2188797 4.17511034
3.070982695 13.90007687 4.912651062
3.1553092 13.82652473 5.476314545
2.329015732 15.61270523 2.388302803
2.274004698 14.96296406 3.125957012
5.770305634 11.19292927 0.8100444078
5.898997784 11.13914013 0.8132573366
16.79284668 3.429560661 5.694481373
16.60674858 3.644179821 6.231984138
2.727157116 14.3675375 3.434915543
3.900271177 13.19275665 5.055534363
3.500597 13.46855927 5.624371052
2.718607426 14.6199789 7.248661041
3.258655548 13.70697308 5.904133797
6.288963318 11.3006134 9.909538269
6.365232468 11.24405861 9.920397758
2.30370307 15.18853474 3.676242828
2.423064947 14.89195824 3.768872261
16.76011086 3.446980953 4.967993736
16.68490028 3.570747852 6.752269745
2.211224556 15.57238388 4.688055038
3.665422201 13.24339104 6.065102577
3.581095695 13.33252525 6.387935638
7.117887497 10.3301096 7.303756714
5.344651699 12.1315527 5.107615948
4.886668205 12.38186932 5.507620335
6.595217705 10.68971062 7.292402267
16.31605148 3.902853966 2.906533718
16.59285355 3.591713905 2.843142986
3.243752003 21.29116249 0.5186458826
9.635692596 8.75371933 6.399774551
9.505103111 8.512718201 9.410063744
9.775365829 8.486649513 9.791627884
6.093710899 10.96357822 7.521547318
12.25634289 6.745052338 7.05314064
12.08185101 6.653999329 8.05351162
11.45582962 7.133166313 7.614391327
14.21865654 5.807832718 5.766620159
13.54622555 6.075993061 6.929365158
2.301436901 16.45933914 9.574962616
2.314405441 16.52530861 9.063494682
2.275887728 16.02682877 9.222967148
2.358217478 15.32570648 7.258858681
2.4419384 15.17040157 7.534330368
2.326299906 15.41760921 7.574030876
2.872659683 18.63698196 0.8761888742
2.97984314 18.57992935 1.104159474
6.063879967 11.58957291 5.045419693
2.123855829 16.29410553 5.744324207
2.489710569 15.03620815 6.684867859
2.390144587 15.23380947 6.943687439
2.337409019 18.63555145 8.179178238
3.474073172 13.27046394 7.245545387
2.522962332 14.97309494 7.145215034
2.245820045 16.64451408 5.106855392
2.175578833 16.46167755 4.91719532
2.779457092 14.27401733 4.64594841
2.727142811 14.38312149 4.321451187
2.862714291 14.30742645 6.628435135
2.220919132 15.70435524 7.324254036
2.116560221 15.88412285 5.655669689
3.023612738 13.90788937 7.601155281
2.22739625 16.19842911 8.698616028
2.269888401 16.99868774 8.561515808
2.197262526 16.50440979 8.105460167
2.32717514 17.11556435 9.262648582
2.027686834 18.16653252 11.34805679
2.246425629 16.5264225 8.585886955
2.117851734 17.98829079 11.53386211
2.931569338 14.11859226 7.792479515
2.254175663 15.6412487 7.784585953
2.583078623 14.83867836 6.382579803
2.112193108 16.27249146 7.917841911
2.850342035 14.32320309 7.428099632
3.015928984 14.01390457 6.583114624
2.840396643 14.21408749 4.924973011
3.086577177 13.8806076 4.511414051
2.66545105 14.67016506 6.769024849
2.848231792 14.36294746 7.051771164
3.070727348 13.93850994 5.932230949
4.289953232 12.2962923 8.697275162
4.258054256 12.37261391 8.125925064
4.695806503 12.02039242 8.171850204
10.43159199 7.654790878 8.16435051
10.57188034 7.653769016 7.767092705
2.93138957 14.09473419 5.265945911
3.848368645 13.15988159 5.683562279
5.036698818 12.8088932 3.337129116
4.071270943 12.96748638 5.53966856
4.420140266 12.69486713 5.620958328
2.32460618 15.12563992 4.049771309
2.273460388 15.3982296 4.301734447
4.29906559 12.87360859 5.21804285
17.11618423 3.257038116 7.774328232
17.09172821 3.234591007 7.467571259
17.25087738 2.963838577 7.598745346
10.33311844 7.904054642 9.331775665
4.216068745 13.20696831 4.012115955
12.7617054 6.302665234 8.041913986
13.39508343 5.971318722 8.214424133
5.176575661 11.674716 7.768239021
16.89592361 3.348431349 7.141880035
16.70611572 3.612431526 7.547078133
16.47865677 3.795309544 7.403503418
10.47293854 8.618800163 4.81438446
10.19402218 8.969698906 4.501451492
2.518713713 15.09932899 9.052078247
15.99904633 4.130316257 5.169630051
2.276796103 16.21317482 9.932500839
2.270049095 16.13154221 9.600830078
2.274439812 15.90175533 9.666087151
5.719647408 11.28231716 7.532708168
22.41721344 2.182471752 12.18266296
20.89414215 2.471787453 10.38930988
22.59905243 2.621189594 7.724898338
22.84278107 2.61244297 7.42331028
16.11347008 4.140370369 7.236147881
15.91342831 4.349262238 7.04431057
17.42264175 2.495866299 4.469754696
17.33914948 2.643890142 4.947760105
16.12877083 4.159310341 7.854504585
15.82129955 4.44811058 7.567750931
24.22318649 2.386749268 9.370671272
24.4145031 2.375264406 9.07676506
20.25369072 2.427180529 5.363379002
19.75141716 2.379962921 5.082081318
20.13220787 2.389464855 4.871304989
6.594976425 11.61367512 1.62143743
9.569454193 8.283236504 8.513612747
9.167423248 8.621632576 8.839175224
13.07965565 6.046131611 8.792592049
8.42862606 9.2552948 9.303389549
6.958815575 10.35430908 7.703789711
7.122107983 10.2506237 8.056395531
6.732104301 10.48422337 8.04751873
6.228539467 11.84194279 3.537180424
6.193272114 11.71383572 4.11817646
5.849569798 12.06215 3.726101398
9.528650284 8.348814964 9.007297516
9.376945496 8.520823479 9.140706062
17.60084343 2.527407169 10.89292717
5.699032784 12.02365017 4.412840843
5.25992775 12.36266327 4.477924347
5.415271282 12.38784027 3.945560932
16.90971375 3.48886776 7.672147751
15.615345 4.634264946 7.199440002
17.19130516 3.036996841 7.208723068
17.20975113 2.909234285 6.78463459
13.87973213 5.815566063 8.165345192
19.89237213 2.403863907 9.604728699
19.54951286 2.452667236 10.23116493
9.785476685 8.286896706 9.279868126
12.68855381 6.243677616 8.761611938
5.242913723 12.59989929 3.572411537
11.63140011 6.917426586 8.385978699
11.29405117 7.130934715 8.236387253
11.09071827 7.231649876 7.978253365
10.96017075 7.317920208 8.352175713
10.75601006 7.892327785 10.28942299
10.02824593 8.49700737 10.06492805
8.927469254 9.082427979 9.85055542
3.68034482 12.83047009 8.898610115
3.973597288 12.55877113 8.589038849
4.652524471 12.03667355 8.754419327
6.330840588 10.7540884 7.973891258
5.955626965 11.0367384 7.962982178
6.142807961 10.87374592 8.334134102
5.824843884 11.14585781 8.469954491
5.611602783 11.29606342 8.036097527
6.505114079 10.63696861 8.52437973
6.938891888 10.35696602 8.571033478
6.776947975 10.48945427 8.993956566
7.127156258 10.2300272 8.964267731
7.329136848 10.10051155 8.446849823
10.58379841 7.969659805 10.11537266
8.32038784 9.276322365 9.053296089
8.872244835 8.79838562 8.971437454
10.07880497 8.142652512 9.524720192
7.201234818 11.01805019 4.013402939
7.672688007 10.80360603 3.722296238
7.717119694 10.59237766 4.579565048
14.96359444 5.205229282 7.118864059
15.03589439 5.205300331 6.244012833
15.29229927 4.942534447 7.313908577
8.497883797 9.139929771 9.115675926
9.828896523 8.1358881 8.896413803
10.03225327 8.035199165 9.154485703
11.24544239 7.206233501 8.930706978
16.8596096 3.844263554 10.60575008
16.35648918 3.953588009 7.865005493
15.10586548 5.068159103 8.316650391
15.53445816 4.71243906 8.674149513
15.22269154 4.984462738 8.853401184
11.97998524 6.68322134 9.486819267
11.71172905 6.916082382 8.950451851
12.80672359 6.173186779 9.187398911
11.04167747 7.480091572 9.493071556
10.68399429 7.448624134 8.348568916
10.72193909 7.506936073 8.764215469
8.594899178 9.155202866 9.300982475
10.69795132 7.843980789 9.987494469
11.60614395 6.979104519 9.364965439
11.65285683 6.951849461 9.934272766
11.35158443 7.240560532 9.690935135
6.379795551 11.31597996 10.05143166
2.55728817 14.97720909 9.400698662
2.844948292 14.41335297 9.312878609
2.682086468 14.73348904 9.049427032
2.296686649 16.60009766 9.974905968
3.294315577 13.3658638 8.912096977
3.465092897 13.1478672 8.642748833
3.186223745 13.62617874 8.88420105
3.254629374 13.45191097 8.541330338
3.096905708 13.86333466 8.853552818
2.340285778 15.56634712 9.744269371
2.396598101 15.38505077 10.06795216
2.483801126 15.1876297 9.722275734
2.308978558 15.72442436 9.461112022
2.094479084 18.00189209 11.24919891
10.80109406 8.632831573 3.857817173
11.64407063 7.938490868 3.976621151
2.291510582 16.52438354 10.2858057
11.27029133 7.644958496 6.135840416
12.32487106 6.482818604 9.56886673
13.26233196 6.001059055 9.430616379
13.53116608 5.849927425 10.25527287
11.39938545 7.249355316 10.28235531
24.86623001 2.387210369 8.988599777
25.48139954 2.519178391 8.588787079
25.43406677 2.49584341 9.504278183
14.56921482 5.453185558 9.349030495
14.24931049 5.630335808 9.307584763
16.23597717 4.245249748 9.523367882
16.4178257 4.125679493 9.119719505
15.45177364 4.776360512 7.866405487
13.70026398 5.872545719 8.812240601
14.42609692 5.546933651 8.882609367
14.85366726 5.267007828 8.885909081
17.59715271 2.561243534 9.874085426
17.34868813 3.069153786 9.712263107
16.17155647 4.347304344 9.86547184
17.49995804 2.696267128 10.37620354
17.40608215 2.923886538 10.05809689
17.2716465 3.194244146 10.10058689
17.1825943 3.408562183 9.936877251
16.98424339 3.735251427 10.05537319
15.8105402 4.454267025 8.123403549
2.148401976 16.41280746 4.832400322
2.165264368 16.29470444 4.652325153
18.27181244 2.149769545 11.05984116
18.05577087 2.161674261 11.18006897
17.33658028 3.062098026 10.37888813
17.61995888 2.450296402 8.983968735
17.74422646 2.252257347 8.89881897
19.76072884 2.469665289 10.8430481
18.89330101 2.377948046 9.484706879
18.81026077 2.352849245 9.142209053
14.88912868 5.276032925 9.390458107
16.00580215 4.401711941 9.601723671
16.10274887 4.289525986 9.232664108
28.39951515 2.56197834 12.15156364
17.58445358 2.488016605 11.13897324
19.84746742 2.445362806 11.31785583
17.77372169 2.254101276 10.11344814
17.64945793 2.452121973 10.1985836
19.11523819 2.404361248 10.42748451
20.50075531 2.485355854 10.64627743
19.86335945 2.371907711 9.010518074
20.15515137 2.349134207 9.167281151
21.30942535 2.335114002 11.7466116
21.1015358 2.426301956 11.20102406
20.68636131 2.100993395 12.67922306
20.23036003 2.415120602 11.48345661
20.18982124 2.44226861 10.95756149
24.42392731 2.355909348 8.632073402
18.3401947 2.190923929 8.412657738
18.13406372 2.153354406 8.708641052
17.98490906 2.112503529 8.397899628
19.37018585 2.390505314 11.96367741
20.86485481 2.478268147 10.81465054
21.88205338 2.303005219 11.86231327
19.18944359 2.356390715 8.288978577
18.89815521 2.33347106 7.866066933
19.09379005 2.354357481 7.992671967
19.27138519 2.329829216 7.722906113
21.25986481 2.455074787 10.31363487
17.9064827 2.23994875 9.783714294
20.38058472 2.333450556 9.48887825
18.48365211 2.217362404 10.18687439
18.96744919 2.3767066 10.00578403
18.7798481 2.338831425 10.43200016
17.57958603 2.342717409 8.657183647
17.43440056 2.603646278 8.368828773
17.2206955 3.300965071 8.778605461
17.36555862 2.935451508 8.64568615
18.14369774 2.142309904 9.903923035
18.65036201 2.318150282 9.387104034
18.50737953 2.277169228 9.11975956
18.62749481 2.301665783 9.722821236
18.34957695 2.202735186 9.741031647
18.40951347 2.20300436 8.779319763
18.97523308 2.382559776 10.69166946
21.45840073 2.352091551 9.530852318
21.18057251 2.365023136 9.21689415
23.10339355 2.285767555 10.13241005
23.39466858 2.308698654 10.5553093
23.55753708 2.346973181 9.955406189
24.28224945 2.359307051 10.02684784
23.91841888 2.35914731 10.61187172
20.06520844 2.361529589 7.407500267
19.64759827 2.329806328 7.224681854
20.10957909 2.381290913 6.847001076
17.8159256 2.186168432 8.622240067
18.12469101 2.141570568 7.380241394
18.14915276 2.163992643 7.686988831
18.73365211 2.304812431 8.710026741
17.42410088 2.421096802 7.217411995
17.92153358 2.107581377 7.321198463
21.55996704 2.376873255 10.00364113
16.29850197 4.032686234 8.11746788
16.15245056 4.250281334 8.560447693
21.90896988 2.359138012 11.19366455
28.1184845 2.578586102 11.43919182
21.8176403 2.373881578 10.43137932
33.19794846 2.831665039 15.94985771
33.10983658 2.842766523 15.58600616
30.73992729 2.888457298 13.27302742
20.77506828 2.355943441 9.254005432
26.01174164 2.243309975 13.7185688
26.16707039 2.284062862 14.07274055
21.3886795 2.481974125 8.211688995
21.6908226 2.610630989 7.746757507
21.96000099 2.548517227 8.106176376
22.90787125 2.161322832 11.97794819
23.34460449 2.258891106 11.69277763
23.72833061 2.287554264 12.01352119
22.69442368 2.303226471 9.904132843
20.74580574 2.346824884 8.792819023
20.46980858 2.342858791 8.98829937
18.35687637 2.207522631 8.033513069
18.65950584 2.306033134 8.188987732
20.16565514 2.365819693 8.744703293
20.53409195 2.375535965 8.447117805
21.51298523 2.442565203 10.45391464
26.79645348 2.598783493 11.07836342
26.4135704 2.629039288 10.91279125
17.32096672 2.533358335 7.543045044
24.82349586 2.342242718 8.418525696
22.92727852 2.204357624 11.37686253
20.08398247 2.3539536 8.291213036
19.55303192 2.394991636 8.723501205
19.67231941 2.344981194 8.284864426
18.49800301 2.265371799 7.791418076
18.20540237 2.198102951 5.706439972
18.47951317 2.234558821 5.88809824
18.02764702 2.141871691 8.081457138
17.81993294 2.098373652 7.734945297
17.23164368 3.160122633 8.422060013
17.23350716 3.127648592 8.044952393
17.31613159 2.936286449 8.29830265
19.87386322 2.388597727 8.587948799
21.8095932 2.590732813 6.687755585
21.227005 2.560456276 6.728495598
18.6654644 2.313200712 7.478945732
18.95353508 2.339812517 7.503432274
18.45201492 2.2708323 9.482442856
17.89842033 2.098353148 6.903452873
18.3816452 2.17596817 6.434155464
18.02422714 2.137266874 6.043058395
16.5788765 3.806885719 7.987266541
17.31335449 2.782418728 7.96589756
15.11204529 5.083639622 9.24656868
15.04034615 5.118552685 7.750127792
14.09838581 5.733809471 9.041802406
15.50519466 4.718919754 9.099490166
15.39241886 4.857836246 9.116348267
16.87469864 3.854910851 9.584137917
14.50991249 5.487900257 7.939428329
14.14647579 5.704190254 8.613609314
17.22105408 2.826224804 4.189837933
15.49230671 4.764809132 9.278798103
14.68976402 5.504366398 5.940779686
15.19032478 5.059729576 5.888622761
17.00416565 3.732586384 9.188136101
17.00994301 3.500459909 8.255903244
16.77026367 3.938406467 9.134233475
16.97241402 3.674187183 8.815889359
16.68129158 3.890570641 8.615218163
20.65753365 2.461441278 6.456902504
14.48395157 5.571386814 6.658046722
6.467485905 11.83098221 2.194656849
6.715100288 11.63816452 2.224442005
6.813374519 11.55476952 2.630944252
2.904827833 14.1120491 4.582864761
2.487732887 14.78265381 4.180169106
2.618710279 14.53883457 3.872275829
2.373717308 16.12667847 3.158719063
3.62932682 13.3992157 4.74108696
3.844488859 13.32837963 4.465662956
4.611711979 12.66051197 5.193949223
6.78767395 11.05712795 5.270666599
4.055212975 13.35991573 3.570651054
6.672054291 11.28875637 4.42385006
6.964076996 11.45856857 2.143281937
7.121899605 10.95916462 4.689689636
7.312794685 10.74680424 5.19311285
16.43410301 3.736082077 4.550985813
17.15584373 2.838236809 2.603723526
16.97841263 3.086448431 2.209222794
17.17566299 2.723698139 2.068622112
7.079809666 11.32322979 1.771431565
7.300805569 11.16327858 2.004690647
16.60619926 3.53127718 4.170721054
18.31569481 2.209754467 2.587705135
18.57743263 2.246383667 2.682501793
18.40490532 2.234739065 2.973656654
6.298989296 11.87451744 3.039411068
5.908834457 12.24284649 2.831415653
6.235674381 11.99703312 2.517111778
17.26072311 2.771326303 6.333584785
16.94695473 3.163791895 4.03128624
18.00881195 2.22188282 3.452582836
18.27216148 2.248889446 3.30332756
18.30923271 2.248280048 3.563863754
18.06948662 2.184781075 3.864679813
16.7482872 3.385911942 3.728479385
16.520298 3.614478588 3.851047039
14.98471546 4.945291042 4.145456314
14.54097366 5.536941051 4.278298855
14.5618906 5.458472729 3.765306473
17.33084106 2.699308872 5.414488316
21.44306183 2.532974958 5.721718311
14.70497131 5.237295151 3.67733717
3.420126438 13.5890255 3.974323273
2.534142494 16.48970604 2.670836926
2.234658957 17.35091591 0.6557992697
6.426536083 11.64166927 1.579632163
3.641756058 13.49526596 3.609238625
3.753751516 13.42489815 3.991627693
7.102643013 11.35529709 2.322216511
6.67383337 11.50284481 3.515536785
10.44878101 8.931996346 3.511162758
10.35293865 9.064628601 3.015843391
16.57937813 3.571427822 3.620722294
16.61857605 3.515493155 3.37105608
11.08902454 8.420138359 3.660035133
8.525069237 9.183327675 1.022731423
27.52092361 3.002485275 3.12823391
27.86547661 3.071504116 2.81211853
28.03687096 3.062659264 3.385428429
14.30581665 5.841431618 4.003177643
14.30011082 5.811406136 4.58018446
11.2112627 8.373697281 2.866406918
25.24741364 2.797415733 4.789696693
25.00004768 2.608953953 5.490211964
24.60005951 2.764576435 4.751237869
30.49995422 3.374926805 7.879725456
29.79443932 3.181876183 7.871516228
30.31136513 3.397266865 7.065196991
14.18211651 6.105603218 3.490112305
16.34908104 3.847029209 2.613465309
16.34231377 3.765386581 2.281790257
20.40315819 2.75687027 2.018126488
20.84336472 2.827927113 1.998281121
20.67717361 2.681461811 2.531919956
14.99854088 5.085770607 4.675647736
16.10144615 4.039833546 2.583671093
20.43453598 2.383404255 4.605519295
20.06290817 2.377407074 4.50466156
20.19698143 2.376435041 4.064016819
24.16153145 2.110066414 7.694659233
15.06847858 4.758835316 2.647890568
15.36148548 4.510007381 2.47140646
15.68057537 4.273972511 2.357680798
14.47045803 5.735352039 3.358344078
20.97245026 2.632172585 2.954057693
21.04439926 2.558824539 3.430863857
20.6642189 2.615496159 3.043382645
19.46153831 2.354706764 3.66168642
16.4620266 3.557827473 1.909158349
16.82668877 3.274034023 3.229171276
13.96581936 5.233755589 1.369701505
14.5139389 5.194785118 2.065167904
14.56833935 5.419939995 2.789162159
12.2953949 7.366511345 1.663717389
12.44409084 7.564910889 1.908488393
14.64536095 5.310416698 3.287372589
14.76024723 5.116179466 2.760345936
11.02189636 8.464567184 2.451077938
13.64323711 6.649522305 3.060494423
10.1408186 9.250897408 2.604062557
20.55408287 1.38836503 0.773602128
20.5005703 1.349542618 0.7591460943
20.67918396 1.249233961 0.8435815573
20.43048096 1.03198576 0.7685724497
20.466959 1.323617697 0.7639888525
20.47778893 1.444913268 0.7627130747
20.3946743 1.307972908 0.7523471117
20.09685707 1.196133614 0.7512632608
20.30356789 1.315446138 0.7435344458
9.533301353 8.464709282 0.784861207
9.425625801 8.567475319 0.823017478
9.331245422 8.466790199 0.7479029894
11.51611137 8.170341492 3.042934418
12.55519199 6.934196472 1.558133245
12.28421974 6.766614437 1.22054565
12.59151936 6.612514019 1.30820334
10.71866512 8.658298492 2.030488968
11.06271839 8.399012566 1.957369447
3.076196671 13.96021461 3.715263844
11.30976391 8.12446022 1.698919415
8.520409584 9.435935974 1.090548158
8.735505104 9.627282143 1.17041862
14.78516197 4.965499878 2.246547699
5.978583336 12.09737682 3.264082432
9.786622047 9.582515717 2.63449955
8.533855438 9.845801353 1.222623229
2.912696123 19.38797379 0.8279923201
11.95726585 8.022572517 1.936465144
12.02896404 7.956474781 1.659857154
10.47486973 8.929199219 2.687366486
10.67277145 8.760040283 2.502865314
11.18776703 8.132445335 1.472996593
11.27226353 7.90860939 1.349273324
5.479981899 12.62139702 2.606969357
5.836894512 12.31618977 2.354560852
2.611272573 17.20890427 1.110142827
2.042396545 18.29808998 0.3096147776
2.453142166 18.13629341 0.4929414988
3.778836966 13.49792194 2.813558578
3.009295702 14.01296616 4.146280766
2.843131304 14.2249403 3.81650877
3.206128359 13.80776596 3.93966198
3.309257269 13.69548416 3.614018917
4.179684639 13.3856287 2.821172714
3.480919361 13.64822102 3.167773724
3.891920328 13.46359062 3.218051434
4.169157505 13.3689003 3.243761063
19.64711571 2.344330788 5.717785358
19.13634491 2.359861374 5.149753571
19.73921013 2.460893631 2.890047073
19.95575333 2.418897152 3.390165806
17.12119102 2.90369606 3.140828133
16.89998627 3.198306084 2.708564758
18.51694679 2.291762114 3.910431862
16.67660713 3.420839071 2.23204565
16.80250359 3.213179588 1.902829766
16.39422607 3.424243689 1.63062799
16.61990166 3.385711193 1.819152236
18.30973434 2.218165398 4.184238911
12.70408726 7.371901035 2.025082111
12.78127861 7.112081528 1.835853457
12.9205265 7.202422619 1.970873237
13.06615162 7.157975674 2.348371983
16.9552536 3.108368635 3.564571857
17.19933319 2.830222607 3.661099434
17.45934296 2.406209707 5.195508957
18.01068115 2.189401865 3.075487137
20.82391548 2.457630396 5.235795975
20.51756096 2.408496141 4.948021412
20.99052811 2.446558475 4.768209457
21.10099983 2.497671366 5.062461853
20.78544998 2.460594654 5.972807884
18.03243065 2.169827461 2.717656612
19.58781815 2.379068375 4.308145046
17.29593849 2.613458395 2.870732307
17.36923981 2.553311348 3.236684322
20.71803665 2.400481939 4.342499733
23.22990608 2.487135887 7.455052376
21.41538811 2.514210701 5.016576767
21.24396706 2.538620472 5.329758644
22.58640671 2.485643387 5.443706036
22.7266922 2.484616518 5.046448708
23.05310822 2.411960125 5.552599907
21.52022362 2.504168034 4.11472702
21.221138 2.490983009 3.892447948
21.00421715 2.475135088 5.63058424
21.71664619 2.63068676 7.056037903
22.71567154 2.529189348 6.621650696
22.46364594 2.577773571 6.503470421
24.17758751 2.992777824 3.882759094
24.67055321 3.155611277 3.390081882
24.91109276 2.919555426 4.107829094
19.50613594 2.382783413 4.741166592
20.59763336 2.43001914 5.64554882
19.82052231 2.399329662 4.695271492
21.23072815 2.526672363 7.747299194
21.51778793 2.62907362 7.417512894
20.2278614 2.407108784 6.054117203
17.94366646 2.161455154 5.611638546
22.65667725 2.468643188 8.824163437
23.05946159 2.451311827 9.009029388
20.66693497 2.457653284 6.898727417
21.18238831 2.563548088 7.422034264
20.83809853 2.471684933 7.605106354
20.95339203 2.493881226 7.16721344
20.47315216 2.419878483 7.281538963
21.35493088 2.575211048 7.130936623
18.76756477 2.276733398 6.799081802
18.80547333 2.33499527 7.214795113
18.60231018 2.301026821 7.155752182
22.16241264 2.635465145 7.677944183
22.36040497 2.593754053 8.047784805
24.69208336 2.38517952 9.523749352
18.16178131 2.125378132 6.754260063
17.94761658 2.104808807 6.49740696
19.49175262 2.350318432 8.023142815
19.13438034 2.280471087 5.859027863
19.38724136 2.290794611 6.132347107
19.20718575 2.266031265 6.491021156
19.16501236 2.318392277 7.095707893
18.81082916 2.260415316 6.21652317
19.78652382 2.331148148 7.824910164
20.35649681 2.384465218 7.830381393
20.86628342 2.444746733 8.044130325
31.30445671 2.873303175 12.83593082
21.903368 2.625224113 7.361203194
22.34297371 2.61453104 7.053137779
24.24947929 2.40786624 11.07333565
23.88266945 2.388543129 11.12690258
31.5144062 2.98897171 13.22660923
29.16093254 2.51581955 14.72175407
28.80945969 2.499875784 14.50712204
28.13480949 2.521750212 12.41175842
28.15544701 2.481686592 12.91837502
27.74403763 2.449869633 12.77894783
24.33452606 2.281352043 12.12435913
30.16146088 2.666830301 14.39860916
29.80319977 2.584804296 14.73886108
33.59061813 2.839900494 13.43253517
33.18995667 2.817528486 13.62398338
26.3584156 2.272582531 13.77880192
26.36643982 2.239978313 13.445117
23.6612072 2.347596169 11.69106007
31.56113434 2.777462482 17.873209
31.13354301 2.683355808 17.84682846
22.31520081 2.515080214 8.453107834
23.35740852 2.269841909 6.881774902
22.94109535 2.513487339 6.943271637
27.21855545 2.855433464 9.244428635
26.88985443 2.759702206 9.912727356
26.29677773 2.697156906 9.489525795
30.57460213 2.769708633 12.18881512
30.96775246 2.779014111 12.06488991
32.21541214 2.925883293 13.47860718
31.59231186 2.922781944 12.99343681
33.00478363 2.844489336 14.84786606
33.2111702 2.859212399 14.41883469
33.35172272 2.850926638 14.7749958
32.14446259 2.923420906 13.35600662
31.87122345 2.945898056 13.32948685
29.77701378 2.475710154 15.89481735
32.36964417 2.930590868 13.81065655
29.42638779 2.503084183 14.94885063
32.70211792 2.777115583 16.46541023
32.38662338 2.724512577 16.48920822
33.7230835 2.87977457 15.00891304
32.95351791 2.862217665 13.99108696
32.11330414 2.962378025 14.15847015
31.65641594 2.874720097 14.55744934
32.64797592 2.871959209 13.85848427
32.56145859 2.88898468 14.13710976
32.77317429 2.860273361 14.48283958
31.26681328 2.792169571 12.2871933
32.38011932 2.804284096 11.94718075
27.38752556 2.797351837 9.906571388
28.16736603 2.838880539 9.748373985
27.8228302 2.76987958 10.0644989
27.75702477 2.843083858 9.631118774
33.52149963 2.851716042 15.59235382
31.57395363 2.772814274 12.17572021
27.93962669 2.686160564 10.60128784
31.25016212 2.760021687 11.77977657
30.5009861 2.725265741 11.40162563
30.75999451 2.735470533 11.71839428
