# .PCD v0.7 - Point Cloud Data file format
VERSION 0.7
FIELDS x y z
SIZE 4 4 4
TYPE F F F
COUNT 1 1 1
WIDTH 1499
HEIGHT 1
VIEWPOINT 0 0 0 1 0 0 0
POINTS 1499
DATA ascii
0.0519601 0.100044 0.6344523
0.04842234 0.1011029 0.6337979
0.04736671 0.1008541 0.6338958
0.05018491 0.1004577 0.6345018
0.05257535 0.1012634 0.6326346
0.06928328 0.02042195 0.6386293
0.06500927 0.1002388 0.6376162
0.06832809 0.1022462 0.6331216
0.0650996 0.09971575 0.6394376
0.06783992 0.1013316 0.6342133
0.06178943 0.09812344 0.6431215
0.07627767 0.01974429 0.6412476
0.06540021 0.0990088 0.6413118
0.06114005 0.09904201 0.6413196
0.07916234 0.09944402 0.6426281
0.068371 0.09841643 0.6433179
0.0602579 0.09350055 0.6506174
0.05386152 0.09423948 0.6466228
0.08060073 0.09924787 0.6451983
0.07949574 0.1016251 0.6406708
0.07193512 0.1030235 0.633165
0.06669994 0.09724337 0.6457492
0.04754175 0.09586504 0.6445426
0.04919219 0.09678096 0.6424568
0.05034661 0.09579917 0.6432432
0.04892062 0.09588169 0.643835
0.0513724 0.09507306 0.6440297
0.05199638 0.09573562 0.6427986
0.05995578 0.09792166 0.6427165
0.05633597 0.09732943 0.6423638
0.0640794 0.09873752 0.6424206
0.06443881 0.09792676 0.6439139
0.06712539 0.09864842 0.6423118
0.07371411 0.09976661 0.6407012
0.07239962 0.09887976 0.6435264
0.06968846 0.09869105 0.64358
0.06306356 0.09719413 0.644593
0.06316975 0.09829059 0.6432766
0.08051437 0.09871797 0.6467529
0.06770825 0.09690496 0.6471724
0.07102969 0.09788307 0.6455464
0.0826671 0.09934527 0.6482858
0.08333015 0.1000153 0.6469874
0.06972753 0.09745487 0.6457812
0.06891616 0.09791612 0.6445724
0.06376337 0.09530286 0.6474208
0.0656619 0.09823329 0.6430639
0.0672674 0.09780587 0.6441637
0.0623313 0.09585599 0.6458989
0.04228433 0.09706692 0.6423807
0.04334318 0.0963354 0.6441793
0.04945044 0.09423111 0.6469523
0.03240036 0.09449822 0.6441911
0.03656021 0.09499345 0.6433564
0.04369413 0.09369315 0.6482461
0.03212479 0.09202828 0.6476865
0.03027982 0.09372813 0.6453544
0.03383717 0.09403434 0.6448164
0.03864538 0.09434786 0.6447117
0.03814508 0.09500545 0.6433831
0.03954024 0.09511771 0.6438354
0.0503574 0.01678946 0.6412551
0.03563997 0.09607505 0.6424076
0.03172234 0.09519345 0.6430547
0.04156737 0.09629334 0.6437393
0.04028147 0.09597429 0.64335
0.02961611 0.09302735 0.6465504
0.02662275 0.09385616 0.6459653
0.02486815 0.09370762 0.6466005
0.02475288 0.09277175 0.6477771
0.03010696 0.09498411 0.6434023
0.02928226 0.09436516 0.6442923
0.02596103 0.09211639 0.6485096
0.0262608 0.0929527 0.6472549
0.01754584 0.09258962 0.6476796
0.01923626 0.09394353 0.6453664
0.0225476 0.07604367 0.6777415
0.01265376 0.0930993 0.6503285
0.02540359 0.07675485 0.6766618
0.02419205 0.07634282 0.6774262
0.02854216 0.07649661 0.6765839
0.02370905 0.07684509 0.6762864
0.02518385 0.07761151 0.6751344
0.02787844 0.07875966 0.6747141
0.02610986 0.07439426 0.6801032
0.02412441 0.07568877 0.6785259
0.02852537 0.07428366 0.6803498
0.03119918 0.07567361 0.6784683
0.02488905 0.07433547 0.680802
0.03509457 0.07582761 0.6807321
0.02058928 0.07303891 0.682413
0.03793163 0.0780891 0.6786749
0.03363166 0.07489745 0.6820537
0.03494988 0.07677495 0.6792711
0.0332399 0.07421954 0.683697
0.03142845 0.0749314 0.6810408
0.03200336 0.0745114 0.6832827
0.03453842 0.07822703 0.6770784
0.03610612 0.07652417 0.6798821
0.02953291 0.07433417 0.6813657
0.0303798 0.07430696 0.682936
0.08705498 0.07905547 0.6834044
0.03746085 0.07682566 0.6796774
0.04244992 0.07496975 0.6768361
0.03831485 0.07601694 0.6803027
0.03982187 0.0753781 0.6796827
0.04705814 0.0753739 0.671353
0.03999114 0.07173952 0.6790035
0.03384475 0.07720475 0.6782089
0.03270805 0.07780995 0.6768888
0.03920209 0.07713753 0.6794415
0.02921995 0.0778571 0.6757688
0.04406406 0.07338876 0.6741231
0.03155563 0.07679381 0.6772385
0.03098609 0.07780094 0.6763049
0.03253736 0.07665413 0.6780753
0.06984646 0.07653217 0.6728778
0.07391217 0.07497162 0.673956
0.07285092 0.0764122 0.6723444
0.03644076 0.07852505 0.6775244
0.03547468 0.07933344 0.6760874
0.05321471 0.07943282 0.6734692
0.03633482 0.07737529 0.6788467
0.03811502 0.07872672 0.6774272
0.03517685 0.07765976 0.6782074
0.03935099 0.07797864 0.6779324
0.09250243 0.08054302 0.6788688
0.08893579 0.07917268 0.6818814
0.08610124 0.07995449 0.6821719
0.08768823 0.07956796 0.6819469
0.08991372 0.07859408 0.6825264
0.09068839 0.07820386 0.6836716
0.08918472 0.07339603 0.6875365
0.09336279 0.06825911 0.6864229
0.0912171 0.07912572 0.682434
0.09267613 0.07645334 0.6889901
0.09598007 0.07657132 0.6890039
0.09217093 0.07973243 0.680048
0.08678694 0.08052377 0.6804644
0.088553 0.07983276 0.6807778
0.09385068 0.07974292 0.6805822
0.09085036 0.08068512 0.679243
0.08950215 0.08079945 0.6788296
0.09665831 0.03048862 0.6716779
0.09812561 0.02558544 0.675665
0.09697452 0.02458308 0.6642976
0.08491366 0.08147541 0.679337
0.0869213 0.0813551 0.6786116
0.08488803 0.08071715 0.681065
0.07671634 0.07979749 0.6766461
0.05887622 0.07791452 0.6749394
0.08908109 0.07099076 0.6857134
0.09107027 0.06769936 0.6847493
0.08083701 0.08198998 0.6779192
0.07479574 0.07742546 0.6731727
0.04489863 0.07714266 0.6740955
0.05511319 0.08083798 0.6743318
0.0559384 0.08193241 0.6737909
0.05301189 0.08193346 0.6733872
0.05375976 0.08065784 0.6736623
0.04555319 0.0782719 0.6738725
0.04379403 0.07817329 0.6737915
0.04504679 0.07578801 0.6735654
0.04691996 0.07852187 0.6732152
0.06573938 0.07943552 0.6743328
0.06728755 0.08079586 0.6729819
0.08675628 0.08611089 0.6693229
0.07133125 0.0791848 0.6732752
0.07588294 0.07097327 0.676349
0.0719506 0.06229069 0.6704866
0.04733192 0.0771692 0.6723284
0.04936665 0.07884928 0.6731992
0.04590606 0.07717981 0.6731878
0.05214915 0.08015409 0.6728045
0.04614171 0.07617164 0.6723005
0.03401582 0.08071174 0.6732672
0.04930416 0.08156841 0.672601
0.04734425 0.08127318 0.6723413
0.0301253 0.08093844 0.6720937
0.03011463 0.08204568 0.6699896
0.04723356 0.06945349 0.6688399
0.05106732 0.02119735 0.6424702
0.02286525 0.08061726 0.6703008
0.01875608 0.07818287 0.6720479
0.02503905 0.07919037 0.6730148
0.02562016 0.07851511 0.6740011
0.0492081 0.01599709 0.6424752
0.01570018 0.07927749 0.6713997
0.01677293 0.0767706 0.6758218
0.02019628 0.07754485 0.6728723
0.02289723 0.0789048 0.6724183
0.03138568 0.08130359 0.6718592
0.02905927 0.08035874 0.6721861
0.03114021 0.07958096 0.6740603
0.02987048 0.07996546 0.6731574
0.02439606 0.07823995 0.6738468
0.0221087 0.07926586 0.6712801
0.01712165 0.07752787 0.674265
0.01862947 0.07740101 0.6735871
0.02299406 0.07816117 0.6733975
0.0172451 0.07880316 0.6716424
0.02384152 0.07978595 0.6718514
0.05099647 0.01505625 0.644676
0.04822047 0.01479516 0.6456126
0.06032372 0.01831576 0.6401808
0.04750913 0.04534564 0.6565405
0.05155179 0.04529145 0.655556
0.04843241 0.04729855 0.6590136
0.0448168 0.0445738 0.6602551
0.05060127 0.01616349 0.6432362
0.04767632 0.02116701 0.6451555
0.05289162 0.01460196 0.6451016
0.05124823 0.01426886 0.6459823
0.04612347 0.01420117 0.6456153
0.05472353 0.01422839 0.6461189
0.04689955 0.01203972 0.6493747
0.04993271 0.02467793 0.6447082
0.04325863 0.01254605 0.6463206
0.04569236 0.01306652 0.6483724
0.04222788 0.01184652 0.6493964
0.04484437 0.01343158 0.6466407
0.04550578 0.01548968 0.6448739
0.04149532 0.01196474 0.6471508
0.05512363 0.02756469 0.6452578
0.05328004 0.03557725 0.6500732
0.0443838 0.01431575 0.6457406
0.04107691 0.01120693 0.6482552
0.04003499 0.01063709 0.6495165
0.03592012 0.007935614 0.6562865
0.04309123 0.01481492 0.6465905
0.04155455 0.01761705 0.649198
0.04327063 0.01224114 0.6493813
0.04507721 0.0120934 0.6494952
0.0424352 0.01187194 0.6476179
0.05407018 0.009792518 0.6538172
0.04407832 0.01279273 0.6481565
0.04932981 0.04933483 0.6601391
0.04921117 0.04310115 0.6541976
0.05648719 0.04007208 0.6535605
0.04960844 0.03984011 0.6524235
0.04449213 0.02144351 0.6478761
0.03361273 0.0006086582 0.669126
0.04749851 0.05391915 0.6603213
0.04248113 0.04189888 0.6622309
0.05673877 0.04677279 0.6585179
0.06079894 0.01284319 0.6491748
0.04228883 0.05086759 0.6670158
0.04721624 0.05147079 0.6597952
0.0454973 0.04946302 0.6630665
0.05354623 0.05452349 0.661744
0.04657881 0.0541464 0.6617435
0.04538922 0.05629214 0.6653179
0.05023561 0.05858872 0.6654327
0.05129524 0.05611129 0.6624854
0.03843138 0.006411419 0.6585889
0.03718402 0.00696983 0.6574781
0.03741637 0.004767899 0.6620942
0.0381194 0.005591512 0.6603893
0.09552865 0.01356599 0.6556701
0.03495134 0.007788544 0.6544768
0.03663652 0.004223438 0.6632293
0.0357083 0.004437986 0.6623325
0.03558974 0.003796116 0.663537
0.03505253 0.003081102 0.6646785
0.03479449 0.005740599 0.6595556
0.03790108 0.007757756 0.6562471
0.03292064 0.007435866 0.6573297
0.03277692 0.006026728 0.6632082
0.03316048 0.0119265 0.6627862
0.03697916 0.008640273 0.6549744
0.04403032 0.007088324 0.6582592
0.03963348 0.007551495 0.6564038
0.03947534 0.009521259 0.6541205
0.03773241 0.01246309 0.6526644
0.03515517 0.01181363 0.6569118
0.03622448 0.008500149 0.6533095
0.03924352 0.01762969 0.6524572
0.05204815 0.01648391 0.6423302
0.0377573 0.009293955 0.6535341
0.03876699 0.008888712 0.6552744
0.03860705 0.006983799 0.6572309
0.04837877 0.01035459 0.6517275
0.04164945 0.01129161 0.6505049
0.0693066 0.05235802 0.6648824
0.04723032 0.009020372 0.6541485
0.05744123 0.01588064 0.6438341
0.03586778 0.01852109 0.6587131
0.04145082 0.009793158 0.653689
0.04854852 0.01118462 0.6502565
0.05857459 0.01685416 0.6429726
0.06197885 0.01853014 0.6417568
0.05491937 0.01547559 0.6433205
0.06380641 0.0179071 0.6427783
0.05478088 0.01626498 0.6423491
0.05367474 0.01506759 0.6439311
0.05229958 0.01541114 0.6437623
0.05356701 0.01582878 0.6429313
0.07077442 0.01741392 0.6437408
0.07060409 0.01780371 0.6425908
0.06758782 0.01787453 0.6425928
0.06644807 0.01863158 0.639254
0.06778906 0.01879977 0.6409883
0.06578141 0.01733335 0.6435033
0.06228158 0.0220846 0.6400287
0.06361624 0.01859356 0.6412705
0.06015114 0.01802157 0.6422871
0.05932245 0.02067467 0.6405281
0.06625871 0.01876752 0.6377389
0.05553703 0.01944911 0.6401872
0.05650466 0.01648894 0.6422977
0.05404948 0.01918452 0.6402328
0.06421508 0.01849406 0.6394999
0.06784099 0.01897004 0.63785
0.07318819 0.01792017 0.642269
0.07075626 0.01799615 0.6412689
0.05597265 0.02286434 0.6420479
0.07344408 0.02029153 0.6386485
0.07334336 0.02313812 0.6412659
0.07136539 0.02319584 0.6404673
0.06755036 0.02491569 0.6426601
0.07006747 0.01687168 0.6448593
0.06835993 0.0187852 0.639349
0.07218493 0.01921319 0.6385642
0.07176065 0.01788868 0.6421152
0.07173341 0.01565807 0.6465976
0.07475189 0.0215839 0.6397022
0.05286799 0.03942455 0.6523442
0.07261574 0.01906833 0.6402814
0.07937486 0.01962401 0.6418304
0.07681058 0.02050912 0.6400257
0.07792193 0.02253901 0.6447495
0.08087568 0.01937236 0.6429933
0.09039191 0.01633688 0.651126
0.0919295 0.01625599 0.6518982
0.08510172 0.01809824 0.646596
0.08379706 0.01988426 0.6459508
0.08592401 0.02320031 0.6518779
0.08356951 0.01807775 0.6457174
0.07844602 0.01880712 0.6430098
0.07777055 0.01581702 0.6462263
0.08173358 0.01848225 0.6453373
0.08301738 0.01625795 0.6472498
0.07963881 0.01899994 0.6437866
0.07400408 0.01922803 0.640934
0.08702474 0.01518102 0.6491944
0.08450887 0.01738589 0.6476061
0.09513002 0.01775538 0.6558685
0.09772884 0.01952056 0.6625217
0.09447643 0.01934009 0.6561355
0.08577335 0.01737572 0.6474023
0.0784968 0.0422224 0.6634911
0.08743887 0.0165561 0.6487443
0.09120517 0.02143551 0.6548317
0.0972756 0.01102757 0.6613299
0.08667857 0.01714298 0.6480929
0.08877537 0.01607264 0.6498456
0.09439326 0.009206344 0.6621503
0.1000147 0.01165942 0.6619921
0.09968374 0.01145044 0.6605336
0.09841141 0.01166296 0.6598076
0.09902133 0.01067693 0.6614298
0.0969658 0.03217035 0.6772818
0.09801847 0.01025219 0.6627603
0.09924395 0.01434607 0.659281
0.09422211 0.0101687 0.6592127
0.0955456 0.01307467 0.6569869
0.09701648 0.00910701 0.6649651
0.09361695 0.02850872 0.664472
0.09456686 0.01137703 0.6576373
0.1005199 0.002166802 0.6778928
0.09958164 0.01312744 0.6591923
0.09807771 0.0171887 0.6597165
0.09898907 0.01226512 0.6582623
0.09711717 0.01263731 0.6581447
0.09940323 -0.0002352628 0.6791999
0.09785935 -0.0008416575 0.6786918
0.09387631 0.01419408 0.6542609
0.09435306 0.01330538 0.6548247
0.09393995 0.01220692 0.6556396
0.09694131 0.01326574 0.6566624
0.09625798 0.01422321 0.6561701
0.08063599 0.009190981 0.6581665
0.09203361 0.01521189 0.6525747
0.05826192 0.05787665 0.665521
0.07428055 0.05691741 0.6682807
0.0919487 0.01175488 0.6546683
0.1013895 0.005070437 0.6825106
0.1004905 0.004060188 0.6833878
0.08976857 0.01483951 0.6507528
0.09431019 0.01539999 0.6538952
0.09293007 0.01465937 0.6533821
0.0898115 0.008024728 0.6635268
0.08859096 0.00937856 0.6575004
0.08569244 0.01191717 0.6525145
0.08643109 0.003950231 0.6722892
0.09514638 0.03508572 0.6705911
0.09420949 0.03673624 0.6711667
0.04443525 -0.002043378 0.680216
0.04432338 -0.004087792 0.6859977
0.04153737 -0.004982365 0.6839196
0.09182037 0.03504517 0.6670952
0.09700686 0.008258709 0.6664379
0.09478334 0.001507245 0.6758326
0.09721735 0.003456166 0.6751578
0.1013698 0.004957853 0.6807302
0.0842147 0.03315514 0.7115735
0.09238813 0.003023319 0.6743085
0.09614808 0.003716098 0.6742166
0.09472767 0.004903399 0.6720335
0.09996127 0.005073477 0.6742477
0.09404209 0.03952657 0.6725863
0.09521516 0.04236894 0.6744228
0.09024744 0.03784403 0.6682599
0.08473377 0.0335356 0.713492
0.09599174 0.04071608 0.6755627
0.09397589 0.03247505 0.6674891
0.09500958 0.04013656 0.6735801
0.09598657 0.03904152 0.6729903
0.09632704 0.03509347 0.6750944
0.09836541 0.04567366 0.6898485
0.09766596 0.04945919 0.6842804
0.09787238 0.04592061 0.6843988
0.09617781 0.03650224 0.6715064
0.09626249 -0.002112172 0.6823502
0.08877996 0.04135285 0.6694594
0.08056939 0.05919099 0.671356
0.08310834 0.03096424 0.7083457
0.08261174 0.03149575 0.7097127
0.08117542 0.05057111 0.6690511
0.08726497 0.04758581 0.6709727
0.08636243 0.0517532 0.6719981
0.09292836 0.05336193 0.6767945
0.08727488 0.05626981 0.6744404
0.09620864 -0.001909811 0.6807685
0.09795136 0.04857551 0.6884574
0.0971422 0.05257721 0.6869894
0.09491144 0.05053907 0.6770418
0.09847571 0.03685176 0.6849943
0.09793231 0.04261424 0.684363
0.09683534 0.0314487 0.6690774
0.09903327 0.007202437 0.6687446
0.09724265 0.007090662 0.6689108
0.09722679 0.01497902 0.6926753
0.09745901 0.03563242 0.6807294
0.09910417 0.02200151 0.6836524
0.09952795 0.01117165 0.6743895
0.09713054 -0.002703354 0.6857619
0.09979047 0.001114026 0.6789269
0.1000366 0.004240441 0.6750845
0.09935522 0.003593048 0.675496
0.09904668 0.001966137 0.6778531
0.09981065 0.005489162 0.6770703
0.1001829 0.002102483 0.6831279
0.09951092 0.002780026 0.6767858
0.09863225 -0.0006014187 0.6804829
0.09996694 0.03148405 0.6949258
0.09962074 0.03471932 0.6918611
0.09733056 -0.001300729 0.6801866
0.09778153 0.002089729 0.6770601
0.09767566 -0.001423551 0.6831066
0.1006252 0.000734305 0.6800939
0.09540913 -0.0006655217 0.6898897
0.09495559 -0.004017782 0.6881187
0.09712186 -0.002101867 0.6878236
0.09868687 0.04125085 0.692117
0.09995379 0.03624368 0.6973693
0.1003507 0.0001496624 0.6809846
0.1010877 0.001924921 0.679738
0.1010801 0.001282548 0.681462
0.1011404 0.007797887 0.6834593
0.1014661 0.006382083 0.6831624
0.101441 0.009060307 0.6797651
0.09544885 -0.002740871 0.6853763
0.09652988 -0.00207558 0.6841953
0.09606474 0.05955162 0.6854699
0.1008179 0.01397284 0.6868501
0.09103236 0.06170626 0.6808791
0.09220548 0.0590187 0.6798485
0.09324864 0.02985363 0.7009398
0.09924036 0.006200959 0.6707913
0.08408415 0.05922706 0.6734828
0.07149468 0.06646496 0.673189
0.09639766 0.0708417 0.697181
0.08783092 0.0744329 0.6868147
0.08570743 0.07535474 0.6849198
0.08974107 0.05819888 0.6777396
0.08396151 0.03150813 0.7088777
0.09778217 0.04621636 0.7030412
0.09758238 0.05090797 0.6970955
0.09372638 0.03710538 0.7042985
0.1000043 0.03271104 0.6961492
0.09513849 -0.002051561 0.6800435
0.09627879 -0.001562925 0.6793446
0.09685455 0.05059812 0.6801577
0.09493005 -0.002782808 0.6833171
0.09252219 -0.0005311759 0.6779746
0.09478246 -0.002564901 0.6813967
0.09343615 -0.002604007 0.6809534
0.09407939 -0.002196522 0.6801217
0.03787349 -0.004333889 0.6806036
0.03883879 -0.006094415 0.6837932
0.03731166 -0.008033748 0.6843485
0.009749851 0.01958875 0.7070838
0.02380986 0.02813103 0.6964607
0.03492491 -0.004023796 0.6776979
0.03886661 -0.003110864 0.6790839
0.02807205 0.007279237 0.685078
0.03657745 -0.0009774622 0.672866
0.03459086 -0.00144476 0.6730215
0.03982403 0.002615518 0.6681939
0.03640803 0.001218577 0.6687898
0.04682093 0.06834777 0.6701686
0.05536088 0.06885033 0.6712479
0.03518041 0.00187983 0.6668888
0.04926113 0.06154697 0.6699043
0.06037311 0.06410404 0.6696407
0.03652401 0.003557135 0.6645322
0.03460349 0.002339567 0.6659729
0.04585664 0.07196818 0.6713153
0.04962135 0.07284565 0.6706226
0.04253657 0.073476 0.6759621
0.02203448 0.03924464 0.7071881
0.0264302 0.03700799 0.7005818
0.07994922 0.02777192 0.7110831
0.03094507 0.05205569 0.6993424
0.03066803 0.05791937 0.6965212
0.04119279 0.06748469 0.6762234
0.03877736 0.06871811 0.6799731
0.03686872 0.06576495 0.6816657
0.02752228 0.07170428 0.6852772
0.02308181 0.07220986 0.6848449
0.02572485 0.07385392 0.6812133
0.02945411 0.07349104 0.6842047
0.02875113 0.07045577 0.687874
0.01873837 0.07373295 0.6806889
0.02154401 0.07350786 0.6819866
0.01914536 0.07287077 0.6821579
0.01789839 0.07215537 0.6837906
0.0229599 0.07366557 0.68211
0.08534253 0.07671497 0.6846567
0.02673193 0.07371674 0.6810502
0.02041021 0.07369764 0.6810872
0.03041627 0.01197363 0.6721022
0.03231589 0.004426625 0.6700106
0.03491251 -0.006464358 0.6820543
0.03610383 -0.005203679 0.6810534
0.03787643 0.07466383 0.6810668
0.03965003 -0.006969854 0.6848084
0.04489041 -0.008071852 0.6891046
0.04256812 -0.007168736 0.6867345
0.04964368 -0.009197799 0.6930556
0.08008899 -0.01077015 0.6949074
0.04659561 -0.01156694 0.6918381
0.04565689 -0.009172405 0.6897194
0.03853851 -0.00716186 0.6842952
0.03998792 -0.005117123 0.682893
0.008859904 0.03966651 0.7196596
0.04624594 -0.008191232 0.690217
0.02993727 0.03105412 0.693726
0.0479435 -0.009925243 0.6917058
0.08146027 -0.009904993 0.6934149
0.07673563 -0.009314701 0.6958484
0.07637826 -0.01030101 0.6966544
0.02709064 0.03122924 0.6975949
0.05077131 -0.008113946 0.6936797
0.04861434 -0.009046771 0.6922046
0.08168196 -0.005527475 0.6896856
0.08924558 -0.007382703 0.6932344
0.08431654 -0.008527841 0.6914976
0.07520665 -0.009410498 0.6967095
0.0754301 -0.006086286 0.6937795
0.08162032 -0.0104542 0.6951533
0.08345857 -0.009236966 0.692804
0.08278867 -0.009817488 0.6945327
0.08327132 -0.01033449 0.6977725
0.05171503 -0.01107386 0.6947686
0.05087847 -0.00999127 0.6939115
0.0497106 -0.01063183 0.6931844
0.0845904 -0.008915017 0.6949993
0.08302888 -0.0098104 0.696376
0.07905541 -0.01084084 0.6966494
0.07688838 -0.01109493 0.6974446
0.07324025 -0.01183398 0.6978113
0.07176995 -0.01182021 0.6978256
0.0788162 -0.01240568 0.698195
0.07815569 -0.01113218 0.6973568
0.08230682 0.01926269 0.7093488
0.06897244 -0.008074333 0.6972281
0.06193851 -0.01401715 0.6990671
0.08117547 -0.01082663 0.6966082
0.06724063 -0.005637032 0.6940415
0.07278261 -0.01090664 0.6975525
0.09061696 0.01143212 0.6990794
0.06604745 -0.0107745 0.6976737
0.05863058 -0.01104466 0.6976498
0.05515397 -0.008900683 0.6957893
0.05606396 -0.01232704 0.6973679
0.02981739 0.0338101 0.6968472
0.03102722 0.03771157 0.6924142
0.05923712 -0.01402711 0.6993033
0.07840151 0.03466395 0.7244903
0.06256549 -0.008566251 0.6964414
0.06135358 -0.01143289 0.6980003
0.02386374 0.03175166 0.7009834
0.058968 -0.009676405 0.6973419
0.05586041 -0.01399664 0.698447
0.0540804 -0.0138777 0.6972393
0.05124068 -0.01312132 0.6951913
0.06622424 -0.01372125 0.6990292
0.07227756 -0.01327112 0.6986694
0.06899667 -0.01191708 0.6982358
0.06164914 -0.0126542 0.6984888
0.0630393 -0.01247533 0.6985176
0.05749767 -0.01412293 0.6989167
0.08180344 0.02106196 0.7113476
0.08587547 0.03073522 0.7063085
0.09463201 0.03458763 0.7023664
0.09289354 0.03305692 0.7016876
0.08193523 0.01544789 0.7111284
0.08282134 0.01715241 0.7109358
0.08309895 0.01873345 0.7081812
0.08470231 0.0175647 0.7071333
0.08126319 0.02231566 0.711527
0.08177782 0.02230095 0.7132204
0.08172242 0.02041277 0.7096958
0.08207571 0.01993174 0.7084747
0.081569 0.02321413 0.7080377
0.09730552 0.02406544 0.6965075
0.08114937 0.02185751 0.7101108
0.08224604 0.02411233 0.7137504
0.08295405 0.02619952 0.7071158
0.08663248 0.02593416 0.7048379
0.08762683 0.01170845 0.7010074
0.08575507 0.008417211 0.7030953
0.07964168 0.02904699 0.7123219
0.07987596 0.02932742 0.7105303
0.08074109 0.02327826 0.7107951
0.0874517 0.01696697 0.7046039
0.08143353 0.01976186 0.7130939
0.08328829 0.03339708 0.7146193
0.07843801 0.03377654 0.7243275
0.08311142 0.01690014 0.715107
0.02705627 0.05253882 0.7142202
0.03108787 0.05264314 0.7125444
0.07676297 0.03823559 0.7264086
0.03588251 0.0530069 0.708972
0.03348456 0.05448253 0.7057571
0.05610116 0.05254491 0.7167825
0.07177797 0.04321639 0.7230787
0.07543556 0.03981093 0.7226933
0.08975644 0.03430789 0.7059193
0.08875068 0.03354455 0.7065108
0.083873 0.03491529 0.7178772
0.08065728 0.03289764 0.7237375
0.07882491 0.0355273 0.7225196
0.08299933 0.0357926 0.7189831
0.07270171 0.04650232 0.7269619
0.07957791 0.04951971 0.7304202
0.07681813 0.03642022 0.7241656
0.08171109 0.03641327 0.7200871
0.07808656 0.03802684 0.7217325
0.08461136 0.03415275 0.7155367
0.08103842 0.02977377 0.719245
0.09639867 0.05495172 0.7101578
0.08414488 0.03381299 0.7168149
0.08344916 0.03311098 0.7160169
0.08674365 0.0357734 0.712285
0.09556199 0.03558429 0.7024027
0.08873964 0.03694422 0.7125821
0.08273409 0.03178648 0.7158784
0.08176135 0.02945521 0.7136592
0.08596016 0.03502729 0.7145413
0.08041027 0.02976705 0.7130959
0.08184253 0.03042912 0.708483
0.08227129 0.03001613 0.7159479
0.08104398 0.02855902 0.7134077
0.0616869 0.0493803 0.7211433
0.08093844 0.02458974 0.7119711
0.08279726 0.03135757 0.7129176
0.08028336 0.03036695 0.7117874
0.09744398 0.02151258 0.6953692
0.03066266 0.04430869 0.7013081
0.02961846 0.044943 0.7028981
0.0862935 0.03514798 0.710383
0.08526589 0.03365385 0.7099741
0.08171072 0.03131657 0.7114109
0.09305653 0.01306816 0.6971297
0.02943642 0.04157985 0.7016515
0.03103559 0.04358705 0.6999754
0.07982895 0.02658352 0.7101399
0.0803949 0.02619311 0.7115239
0.08053435 0.02937062 0.708848
0.03127113 0.04613441 0.6962467
0.02944295 0.04081204 0.698617
0.0955438 0.03747633 0.7048834
0.09379113 0.03559127 0.7031536
0.09542219 0.03665604 0.7034479
0.03138576 0.0518314 0.7081695
0.02810651 0.04911455 0.7075809
0.02840902 0.0447996 0.7041885
0.02462014 0.04408716 0.7072266
0.0291518 0.04825153 0.7063805
0.02822177 0.05182284 0.7108954
0.02304272 0.0485674 0.7130632
0.02434206 0.0470225 0.7105767
0.02789606 0.05052261 0.7097417
0.02929462 0.04584536 0.703939
0.0370007 0.05256703 0.7119995
0.01688313 0.05995198 0.7046816
0.06888147 0.05228814 0.7249075
0.01659446 0.06238312 0.7008875
0.007073275 0.05956081 0.7024829
0.0263027 0.06227734 0.7011359
0.0282432 0.06132614 0.6996135
0.03156028 0.05510196 0.6921132
0.02892823 0.06438031 0.6930737
0.03001823 0.06621221 0.6905932
0.02965677 0.06401243 0.6936367
0.02816176 0.06655983 0.6903605
0.03169687 0.06233069 0.6907001
0.03091655 0.06051641 0.6945322
0.08751451 0.05636499 0.7231463
0.02654424 0.05982005 0.7057664
0.02295595 0.05507685 0.7148927
0.03930129 0.0547084 0.7154058
0.03055197 0.05812207 0.7016937
0.04932337 0.05287285 0.7171566
0.08307043 0.05641668 0.7242303
0.08222044 0.05599753 0.7225415
0.06883154 0.04884046 0.7203404
0.08340833 0.05288304 0.7205077
0.08446607 0.05729466 0.7232329
0.07195293 0.05242541 0.7202395
0.08888008 0.05686412 0.7217357
0.09471481 0.05478873 0.7113028
0.08579121 0.0552466 0.7259818
0.08177771 0.05258016 0.7294207
0.09800716 0.04926633 0.7066147
0.09412009 0.03818162 0.705807
0.08305068 0.05485079 0.7267003
0.02360674 0.05842222 0.7087454
0.01190696 0.05387289 0.7133565
0.01431941 0.04715114 0.720437
0.02828266 0.0605378 0.7039471
0.02313129 0.06007444 0.7066327
0.02338229 0.06525705 0.6963331
0.02381476 0.06409158 0.6978477
0.01462564 0.06445425 0.6971946
0.02276323 0.06955565 0.6901504
0.02475557 0.06864888 0.6915814
0.02432525 0.06939732 0.6906551
0.02463767 0.06797522 0.6926689
0.01992387 0.07016775 0.687866
0.02194878 0.07292155 0.6833593
0.02526123 0.06971624 0.6896987
0.0240998 0.07016574 0.6893992
0.02402692 0.07128301 0.6862903
0.02216009 0.07137915 0.6860558
0.02590418 0.07135198 0.6857146
0.02260401 0.07072937 0.6875155
0.0247003 0.07198587 0.6848662
0.02621365 0.07313532 0.6823396
0.02078661 0.0685927 0.6910021
0.02295436 0.07026536 0.6888041
0.02564144 0.06811728 0.691835
0.02583188 0.06874792 0.6905627
0.02667182 0.06749456 0.6912256
0.02756809 0.07009499 0.6881823
0.03577478 0.07057807 0.68421
0.08400495 0.07659151 0.6832988
0.03433527 0.05892806 0.6847153
0.02610884 0.07211652 0.6840987
0.0287539 0.07251316 0.6851278
0.0279169 0.07276271 0.6835651
0.02897969 0.07161826 0.6865745
0.03065808 0.07184941 0.6867766
0.03090987 0.07389767 0.6846229
0.08815925 0.07835275 0.6845337
0.03236154 0.07380947 0.6847481
0.02998105 0.07290496 0.6857154
0.09045875 0.07733182 0.6862286
0.09182858 0.07690649 0.6873353
0.08854119 0.07880108 0.6829864
0.09444047 0.07764295 0.6868271
0.09306288 0.07063881 0.6874391
0.08942273 0.07833306 0.6837235
0.08821186 0.07596046 0.6871789
0.09293807 0.07318019 0.6888412
0.09389516 0.0767381 0.6890381
0.09258017 0.07549515 0.6893458
0.09589049 0.06584579 0.7023408
0.09134619 0.07602184 0.6890016
0.09309105 0.07457017 0.6900916
0.09176973 0.0744964 0.6892196
0.09318732 0.06937197 0.686832
0.094493 0.06715538 0.6867819
0.09508974 0.06551065 0.6862891
0.0949898 0.0692977 0.688742
0.09474417 0.07022341 0.689198
0.0954955 0.07113021 0.6941083
0.09555229 0.06952395 0.6934265
0.0947015 0.0710122 0.6904755
0.09489714 0.07714755 0.6882097
0.09860908 0.06385545 0.7094989
0.09991267 0.0719675 0.69585
0.09640815 0.06392995 0.6893144
0.09714917 0.06153177 0.6945794
0.09441939 0.06440498 0.6849822
0.09538366 0.06421907 0.6860797
0.09345813 0.07735179 0.6877862
0.09491263 0.07645991 0.6897551
0.09336751 0.07591216 0.6903856
0.09207168 0.07858752 0.6842706
0.09293021 0.07801693 0.6862952
0.09560297 0.07221581 0.692207
0.09648004 0.07226109 0.6939074
0.09482109 0.07555379 0.690788
0.09800016 0.07223441 0.6946511
0.09733307 0.06222986 0.7115436
0.09612069 0.06129742 0.7086625
0.09916876 0.0645452 0.7087298
0.09772996 0.06466282 0.7085646
0.09680642 0.06401256 0.7092411
0.09655833 0.06490748 0.7081189
0.09610008 0.06497791 0.698244
0.09665611 0.06684955 0.6993036
0.09599651 0.06857926 0.6981285
0.09634835 0.05594322 0.7108041
0.09686051 0.05824367 0.7050072
0.09597334 0.06242374 0.7073413
0.09684338 0.06085572 0.7113185
0.09591323 0.05836778 0.7123361
0.09803497 0.06320227 0.710502
0.09719085 0.05739145 0.7109778
0.09392268 0.05942208 0.7175573
0.0960027 0.0664661 0.6933027
0.09583496 0.06863826 0.7005057
0.09770042 0.06616152 0.7058939
0.0929883 0.05761315 0.7144303
0.09618909 0.06373432 0.7028385
0.09658799 0.063017 0.7102674
0.09561483 0.07079014 0.6958362
0.09632652 0.06689046 0.7011217
0.09607939 0.06842615 0.6961292
0.09578589 0.06750379 0.7022066
0.09570569 0.06673218 0.7035852
0.09639465 0.06751827 0.7033466
0.0915962 0.05836815 0.7158785
0.08689445 0.05800008 0.7216672
0.09604639 0.06501961 0.7068456
0.09209396 0.05786012 0.7197256
0.09282842 0.05617142 0.7139226
0.09000938 0.05740678 0.7200689
0.08586005 0.05757852 0.7226018
0.08906384 0.05931982 0.7200659
0.08984266 0.0596409 0.7186921
0.08497223 0.05603413 0.7246257
0.08679443 0.05560838 0.7247566
0.09319158 0.05915497 0.7147958
0.0926151 0.05484982 0.7135645
0.09483547 0.05970824 0.7138048
0.09412505 0.05842405 0.7135031
0.09407838 0.05713936 0.7129646
0.09516315 0.04844509 0.709084
0.0961051 0.05162719 0.70917
0.09665487 0.04985537 0.7083411
0.09841078 0.04055829 0.7025142
0.09368458 0.0556321 0.7126103
0.09670284 0.04748812 0.7076382
0.09469519 0.04689332 0.7085405
0.08813579 0.03817231 0.7139655
0.08855618 0.04024689 0.7138876
0.09422353 0.04554583 0.70825
0.08863106 0.05254345 0.7170575
0.09766872 0.05458751 0.7091064
0.09775473 0.06085183 0.7004775
0.09817713 0.05098439 0.7055095
0.09350581 0.04306391 0.708646
0.09412789 0.04418445 0.7079446
0.1000898 0.03019644 0.6956285
0.09850108 0.03682089 0.7009088
0.09725843 0.03544999 0.7014655
0.08999652 0.03929297 0.7109736
0.08791662 0.01406991 0.7036467
0.1001849 0.03462313 0.6965255
0.1001842 0.03312753 0.6979648
0.1002966 0.02513038 0.6931961
0.09702672 0.03647956 0.7025508
0.09896512 0.03811813 0.6905364
0.09057625 0.03724312 0.7068413
0.08920231 0.03615441 0.7065651
0.09914775 0.03555902 0.6998276
0.09702706 0.03413619 0.7009201
0.09934342 0.03231062 0.6900001
0.0956926 0.01168418 0.6939588
0.09962085 0.02122133 0.6933742
0.1001748 0.03079635 0.6970803
0.1000366 0.03454287 0.6985707
0.09995442 0.01821811 0.6872167
0.09977484 0.02633726 0.6895128
0.09967998 0.02173102 0.6917456
0.09990947 0.02108977 0.6897945
0.09770542 0.04642371 0.6950513
0.09855121 0.04186138 0.6964716
0.08925372 0.03012826 0.7026869
0.09509896 0.04055153 0.7055596
0.09524211 0.03902372 0.7053474
0.09946326 0.03755088 0.69858
0.09580013 0.03450963 0.7018372
0.08409864 0.02212083 0.7065346
0.09480924 0.03347883 0.701603
0.09591582 0.03998531 0.7047388
0.09069332 0.03930071 0.7093203
0.09220565 0.04224496 0.710225
0.09172567 0.03985865 0.7093076
0.09279752 0.04189951 0.7092741
0.09541454 0.0459368 0.707428
0.09042397 0.03863489 0.7080231
0.08922633 0.03730834 0.7080151
0.09628151 0.038832 0.7042606
0.09870195 0.03938248 0.7014341
0.09761877 0.03898795 0.7030848
0.09861202 0.04077661 0.7008018
0.09816656 0.04193773 0.7035672
0.09798805 0.04307191 0.7020029
0.0983591 0.04199084 0.7013141
0.09482437 0.0439375 0.7067571
0.09786846 0.03783765 0.702045
0.09755366 0.05581207 0.6996192
0.09149741 0.03842482 0.7069221
0.09558076 0.04492041 0.7066951
0.09817147 0.04749281 0.7052995
0.0984987 0.04969227 0.7042144
0.09638575 0.04396525 0.7059644
0.09472152 0.0449679 0.7074086
0.09729302 0.04552667 0.7060969
0.09740963 0.04280567 0.7051115
0.0972688 0.04021628 0.7040338
0.09669966 0.03746345 0.7036057
0.09529903 0.04238452 0.7059347
0.09209979 0.03751228 0.7055527
0.09414954 0.04271703 0.7073001
0.08951736 0.038468 0.7125682
0.09068711 0.04067337 0.7114373
0.08848425 0.03812457 0.7108958
0.09117757 0.04009526 0.7103764
0.09114613 0.04594992 0.7127246
0.09371436 0.04610377 0.7092154
0.08985828 0.03318117 0.7042441
0.09504461 0.04998692 0.709323
0.09419348 0.04896823 0.7099868
0.09386718 0.04741582 0.7097412
0.08658949 0.0383103 0.7152643
0.08739899 0.03650434 0.7142754
0.0854089 0.03194134 0.7085487
0.08429451 0.03082733 0.7076884
0.08786521 0.03629623 0.7105614
0.08616222 -0.008176947 0.6945214
0.08593182 0.01268253 0.7060887
0.08525041 0.0344918 0.7118925
0.08482717 0.0354298 0.7164395
0.08685777 0.03224927 0.7071587
0.09337614 0.03426703 0.7024155
0.08604918 0.006192741 0.7071202
0.08870638 0.03281654 0.7053179
0.09493873 0.01411255 0.6956238
0.09212682 0.03382605 0.7024574
0.09008165 0.03219307 0.7029234
0.09118816 0.03346349 0.7032816
0.09140449 0.03273432 0.7021496
0.08674388 0.02100291 0.7049183
0.08833688 -0.00764974 0.6937513
0.08687513 -0.008661523 0.6964096
0.08944513 -0.006090957 0.690258
0.08524398 -0.008331066 0.6927468
0.08690655 -0.007655721 0.693414
0.08658446 -0.007602863 0.6916948
0.09226937 -0.003085413 0.6919056
0.08804642 -0.006773618 0.6910749
0.0863689 -0.007444199 0.6899989
0.09312713 -0.004650487 0.6907515
0.09757519 0.002916651 0.6870126
0.08778365 -0.006726037 0.6893146
0.09345737 -0.003873284 0.6869704
0.09280007 -0.005283929 0.6895667
0.08706271 -0.002968044 0.6839511
0.08782671 -0.006468344 0.6881287
0.09036417 -0.005162105 0.6859621
0.09368692 -0.004620871 0.6885662
0.08891492 -0.005958713 0.6872327
0.09081438 -0.004393524 0.6842772
0.09205312 -0.004435761 0.6853755
0.0969694 0.01061113 0.6893827
0.09658699 0.006802517 0.6897827
0.09192389 -0.003860739 0.6831358
0.096153 -0.003543396 0.6868572
0.09864532 -0.0009257501 0.685964
0.09227057 -0.004599161 0.6878
0.09071017 -0.005355299 0.6887971
0.0991172 0.01453178 0.6892536
0.09781668 0.01267282 0.6890686
0.09701588 0.01420099 0.6905046
0.09877101 0.01096738 0.688042
0.10045 0.01629802 0.684121
0.1010125 0.01484965 0.688067
0.09917597 0.01838732 0.6915544
0.09952638 0.02431057 0.6870292
0.1008023 0.01279237 0.681223
0.1015236 0.009491931 0.6840512
0.09915635 0.009380521 0.6873672
0.1006881 0.009802545 0.686134
0.09988531 0.01291582 0.68774
0.1002311 0.01135833 0.6868554
0.1011836 0.01126676 0.6851714
0.1006542 0.00680449 0.6845133
0.1006703 0.005500794 0.6839451
0.100812 0.01279385 0.6860749
0.09972801 0.007030054 0.6854909
0.09937983 0.008120103 0.686287
0.09888902 -0.001368609 0.6835262
0.09359881 -0.00360867 0.6845967
0.09641677 -0.00324723 0.6881993
0.0983814 -0.00218425 0.6859211
0.09802034 -0.001874325 0.684593
0.09893114 -0.001033982 0.6846607
0.03043966 0.03066114 0.6872981
-0.002235163 0.08816055 0.651618
0.04476736 0.09922484 0.636969
0.04537711 0.09909587 0.638275
0.006714781 0.09021534 0.6529973
0.08977782 -0.003932023 0.6945029
0.09039598 -0.005508085 0.6934344
-0.004623533 0.091437 0.6458835
0.03846991 0.1011463 0.6324531
0.03975054 0.1003367 0.6341
-0.002812359 0.08619344 0.6542721
0.0003085176 0.09366915 0.6451427
0.08651054 0.09426493 0.6545751
0.09180004 0.0921028 0.6596628
0.09062949 0.09160978 0.6603796
0.00900826 0.09000868 0.6531162
0.01030719 0.08915573 0.6537421
0.008813532 0.08954151 0.6544623
0.07063203 0.09138034 0.6594576
0.0713654 0.09212446 0.657625
0.02514943 0.09634289 0.6416222
-0.0005828104 0.1022345 0.6248917
0.005278858 0.1007339 0.6292095
0.0763449 0.0992147 0.6423959
0.08413621 0.0949114 0.6544594
0.08540305 0.09488951 0.654173
0.0439264 0.09899486 0.6382816
0.04298279 0.09925159 0.6368734
0.06084152 0.1004718 0.6363215
0.06445458 0.09139191 0.6572919
0.06571705 0.09278373 0.6548431
0.06693161 0.09185994 0.6568712
0.05663636 0.08098263 0.6744919
0.05724804 0.08015132 0.6752642
0.09409592 0.07869398 0.6829614
0.05864645 0.07965573 0.675343
0.05827649 0.08083467 0.6745796
0.04743391 0.0832909 0.6693719
0.04854642 0.01206931 0.6491226
0.05058265 0.01172088 0.64978
0.09952704 0.01718531 0.6677701
0.09921604 0.01999743 0.6735591
0.09958487 0.0173295 0.6723709
0.0833557 0.0351796 0.6604462
0.08774693 0.03387272 0.6626574
0.08540004 0.03067497 0.6583443
0.09930807 0.01528851 0.6603178
0.09883378 0.0163208 0.6599513
0.09930611 0.01592608 0.661366
0.09719632 0.01464863 0.6574435
0.08498299 0.05973977 0.674814
0.08172054 0.0602024 0.6731339
0.09631062 0.04693153 0.6761631
0.09505791 0.04829912 0.6758065
0.09964648 0.00990391 0.6668969
0.09983111 0.01206532 0.6662211
0.03516955 0.04314369 0.6805028
0.03288625 0.04230854 0.6857507
0.03415191 0.04502496 0.6811248
0.03868473 -0.002255377 0.6768035
0.04664369 -0.009623782 0.6907259
0.04764961 -0.008571006 0.6912445
0.08065666 0.0274696 0.7125358
0.08188148 0.02734837 0.7137205
0.08081606 0.02661962 0.7178199
0.05548405 0.07530794 0.6731475
0.05671642 0.07576282 0.6735986
0.03237442 0.03048609 0.6800056
0.03033376 0.02960269 0.684121
0.03246309 0.03191938 0.6837496
0.02045889 0.06394544 0.6989957
0.01881497 0.064482 0.6972836
0.02594861 0.06506199 0.6962836
0.02476658 0.06587394 0.6954545
0.03383966 0.03442676 0.683727
0.03655173 0.03828352 0.6792327
0.03592927 0.0359426 0.6765752
0.01078585 0.0701222 0.6861699
0.08169985 0.07801635 0.6813139
0.03219197 0.07167787 0.6863155
0.08285716 0.07932478 0.6823387
0.08442492 0.07996824 0.6824015
0.08402918 0.07905818 0.6831827
0.08050358 0.07873569 0.6802386
0.07995682 0.0798927 0.6797963
0.096302 0.06112492 0.6873494
0.09697714 0.05952533 0.6905729
0.101139 0.06972932 0.7007693
0.07923692 0.05552953 0.723955
0.07636928 0.05464692 0.724583
0.08173313 0.04166243 0.7193546
0.07923342 0.04530726 0.7203574
0.07834403 0.04100075 0.7204751
0.07384714 0.05468908 0.7222204
0.07693576 0.05517929 0.722639
0.09944367 0.02541215 0.6950678
0.09883299 0.02672706 0.6962959
0.0966213 0.05929929 0.6883845
0.08405884 0.04038982 0.7180031
0.08650977 0.07020345 0.6830795
0.08765571 0.06816212 0.6827869
0.08436432 0.06858012 0.6808373
0.09377294 0.01664814 0.6974217
0.0946924 0.0194873 0.6970731
0.09323671 0.01896515 0.6991183
0.08553176 0.01016135 0.7063621
0.08551601 0.01171831 0.707401
0.09534696 0.02380246 0.698761
0.09369977 0.02517618 0.7001844
0.09282105 0.0220139 0.6994743
0.09715863 0.03497648 0.6796545
0.09967642 0.02920269 0.6899486
0.09983925 0.02927498 0.6916413
0.09098752 0.004154421 0.6957249
0.09263764 0.008875076 0.6958537
0.0896645 0.007600468 0.6985514
0.08138011 0.02293339 0.7199612
-0.00396137 0.10022 0.6379521
0.002490713 0.0918355 0.6477739
0.005312392 0.09177069 0.6489343
0.005829292 0.09041801 0.6511489
0.01416793 0.1007482 0.6297999
0.00418305 0.09871548 0.6335421
0.00633083 0.09729285 0.6370115
0.01022791 0.09502889 0.64709
0.009088694 0.09618798 0.644773
0.01329184 0.09435518 0.6451684
-0.005373792 0.09396972 0.6422414
0.0009246891 0.09213243 0.6464472
0.003013656 0.09718295 0.6440837
0.007366396 0.09685448 0.6421061
-0.001883663 0.09453753 0.6435926
-0.00446574 0.09202008 0.6441274
-0.00417302 0.09116203 0.64699
-0.003353888 0.0917674 0.6452091
0.0001835134 0.08693404 0.6541046
0.001479161 0.08703068 0.654234
-0.0040058 0.08811811 0.6506424
-0.000871899 0.0859971 0.655284
0.002923197 0.08698151 0.6545286
0.002705166 0.09055351 0.648755
0.009887476 0.08259638 0.6623325
0.01166494 0.08312077 0.6624961
0.009077227 0.08142846 0.6646178
0.01052909 0.08003283 0.6673502
0.01167711 0.07953047 0.6691455
0.0103635 0.07895412 0.6698747
0.04231006 0.03750098 0.6599808
0.04458098 0.03528172 0.6554193
0.04102574 0.03221935 0.6593905
0.01164447 0.07423467 0.6798511
0.009708476 0.07461253 0.6784057
0.008631129 0.07762022 0.6718935
0.01141466 0.07797961 0.6722899
0.01099152 0.07658189 0.6743406
0.01025403 0.07289395 0.681853
0.01015486 0.07363594 0.6804766
0.01158224 0.07353736 0.6811817
0.005035174 0.07251962 0.6807529
0.009441481 0.07191924 0.683649
0.007986036 0.07245359 0.6819341
0.03461882 0.05215496 0.6796862
0.03519371 0.05118855 0.6770232
0.03342381 0.05118857 0.6828454
0.008103685 0.07341109 0.6800663
0.01117323 0.07561176 0.6767254
0.008818528 0.07595751 0.6754887
0.006086389 0.07683866 0.6739451
5.606288e-05 0.07881717 0.6687786
0.00312631 0.08078478 0.6657115
0.01274511 0.06601074 0.6944031
0.0115996 0.06649748 0.6928648
0.01428432 0.06730979 0.6929833
0.01559363 0.0682257 0.6914602
0.008128644 0.06937086 0.6869286
0.003051111 0.06841273 0.6888021
0.005537298 0.06938238 0.6869088
0.01456871 0.07023246 0.6872663
0.0142393 0.06948715 0.6886038
0.00491129 0.06537382 0.6937887
0.004271735 0.06769542 0.6896916
0.004151283 0.0698579 0.6857717
0.007141001 0.07059632 0.6852003
0.01245807 0.06971692 0.6875229
0.009462555 0.06894677 0.6878238
0.009779471 0.07089045 0.6850674
0.01665582 0.06750983 0.6928047
0.005236911 0.06690378 0.6907021
0.006001148 0.06614261 0.6918309
0.007459315 0.06804766 0.6894547
0.01114781 0.06829189 0.6892487
0.0112848 0.06714133 0.6911008
0.008535148 0.06608903 0.6924277
0.008880095 0.08367746 0.6605722
0.0006193458 0.08511966 0.6570774
0.005303744 0.08857471 0.6518984
0.007795699 0.0894804 0.6538336
0.002996825 0.08517791 0.6578197
0.003761402 0.08639499 0.6559207
0.004901076 0.08557203 0.6576216
0.006105191 0.08515821 0.6587373
0.006277033 0.08606144 0.6575147
0.007208064 0.08425675 0.6598088
0.007683184 0.08282932 0.6616845
0.005765781 0.08203402 0.6633394
0.00197233 0.08322652 0.6607653
0.007921533 0.08697493 0.6549973
0.003903729 0.08850764 0.6526147
0.01248048 0.08850536 0.6551773
0.01382712 0.08812795 0.6539653
0.01527526 0.08873153 0.6537527
0.00851937 0.08802497 0.6545149
0.007291637 0.08728983 0.65342
0.004051141 0.09010191 0.6497092
0.008907105 0.0905211 0.6517618
0.00563456 0.08772853 0.6528963
0.005410969 0.08676749 0.6560917
0.07273199 0.09119385 0.6604668
0.07153529 0.09059443 0.6617923
0.0121008 0.08893027 0.6535599
0.01350835 0.08964138 0.6527104
0.01112131 0.08888714 0.6548288
0.04051066 0.07745548 0.676669
0.05764179 0.08846273 0.6617438
0.05864629 0.08709422 0.6648245
0.06053982 0.08853125 0.6622827
0.06516629 0.08805422 0.6660191
0.06664695 0.08893344 0.6646076
0.06134436 0.08755345 0.6648587
0.06302844 0.0887222 0.6627667
0.06691481 0.08988141 0.6619271
0.06502175 0.08891442 0.6635747
0.06257533 0.08995672 0.6598247
0.06340567 0.08790629 0.6653013
0.05472758 0.08803659 0.6616176
0.05600786 0.09003434 0.6577848
0.05443298 0.08613511 0.6653515
0.05453588 0.08529699 0.667134
0.05637257 0.08614308 0.6662949
0.05117189 0.08611104 0.6642126
0.04968521 0.08752239 0.661284
0.05295969 0.08628398 0.6644659
0.05279421 0.08542509 0.6659265
0.05409103 0.0868873 0.6637151
0.05294128 0.08461707 0.6674469
0.06150967 0.07501349 0.6734971
0.06341141 0.07663804 0.6740571
0.05076221 0.08477844 0.6665468
0.04838978 0.08603605 0.6638405
0.04485708 0.08592229 0.6634537
0.0477073 0.08461788 0.6665523
0.04991885 0.08371712 0.6687661
0.04499063 0.07409924 0.6732687
0.04397627 0.07995249 0.6728538
0.0591956 0.08408225 0.6715484
0.05731447 0.08360764 0.6722054
0.05531081 0.08277225 0.673384
0.05904981 0.08294971 0.6729066
0.05210007 0.08888876 0.6591742
0.0563559 0.0828851 0.6731727
0.05269923 0.07713922 0.6733557
0.09217469 0.08395282 0.6753109
0.09506954 0.08308762 0.6767641
0.09342594 0.08370823 0.6757707
0.09517051 0.08571201 0.6712921
0.08991087 0.08765339 0.6675329
0.09289674 0.08461249 0.6743184
0.08836906 0.09300125 0.6568292
0.09142122 0.0879975 0.6671326
0.09366902 0.08611568 0.6707609
0.09233283 0.08594356 0.6712089
0.09122534 0.08742813 0.6686037
0.09418091 0.08669594 0.6694791
0.09596887 0.08449156 0.67362
0.09624352 0.0834959 0.6758091
0.09721083 0.0820546 0.6784098
0.09097133 0.08652565 0.6701627
0.08962624 0.08590788 0.6707925
0.08922605 0.08659867 0.6692577
0.09153283 0.09268313 0.6579335
0.08387065 0.09424097 0.6555482
0.08514635 0.09422854 0.6552474
0.08644741 0.09345531 0.6563007
0.08712245 0.09249707 0.6579142
0.08535402 0.0926997 0.6576502
0.08228946 0.09648543 0.651427
0.08257271 0.09753794 0.6501865
0.08358005 0.09267885 0.6575124
0.0844174 0.09202007 0.6586701
0.07309403 0.09068166 0.661884
0.07958171 0.09689697 0.6498203
0.07853376 0.09596606 0.650658
0.08021069 0.09616704 0.6511181
0.08191103 0.09828907 0.6492668
0.07822371 0.09660313 0.6495444
0.0860735 0.09620453 0.6523163
0.08118403 0.09717306 0.6501251
0.08289416 0.09543968 0.6533071
0.08108697 0.09454577 0.6542923
0.08268329 0.09452186 0.6550268
0.08731759 0.0965923 0.6517326
0.08396372 0.09749411 0.6506959
0.08753992 0.09555501 0.6524889
0.09253585 0.09346604 0.6567178
0.09281984 0.09249526 0.6590873
0.08635545 0.09519888 0.6533524
0.08798803 0.09369489 0.6551481
0.08773471 0.09448981 0.6536055
0.08434673 0.09645853 0.6520157
0.08948217 0.09106904 0.6608893
0.08764768 0.0917156 0.6592547
0.0860213 0.0919095 0.6588468
0.09045744 0.09074141 0.6617243
0.08997297 0.08992788 0.6632867
0.08641966 0.09119445 0.660045
0.0849538 0.09079432 0.6605782
0.08805063 0.09100394 0.6605734
0.08714483 0.08956025 0.6628857
0.08860647 0.09033714 0.6620975
0.09426725 0.08840896 0.6664075
0.0931152 0.08955202 0.6643301
0.09665041 0.08743407 0.6680942
0.09567519 0.08647446 0.6697389
0.09344171 0.09073941 0.6622469
0.02942658 0.08796661 0.6567578
0.02840067 0.08881661 0.6548911
0.07774824 0.09025577 0.6626824
0.03173605 0.08752294 0.6579291
0.03286831 0.08872021 0.6554879
0.02807502 0.08365899 0.6655504
0.03255861 0.08574333 0.6620154
0.02981524 0.08700991 0.6588579
0.07597941 0.08966482 0.6649592
0.0757922 0.09018526 0.6631745
0.02718713 0.08451068 0.6633971
0.02451899 0.08603562 0.6597841
0.02595022 0.08560181 0.6610331
0.01736332 0.09058484 0.6516345
0.07016132 0.08993681 0.6632801
0.04173013 0.09055052 0.6531644
0.04037465 0.08937775 0.6551696
0.03724201 0.09168946 0.6494497
0.04099743 0.08549526 0.6636266
0.04125309 0.08762349 0.6590808
0.02838018 0.08595639 0.660863
0.03742364 0.08467535 0.6649464
0.04160041 0.08357272 0.6676765
0.03448395 0.08376458 0.6668991
0.03035232 0.08855736 0.655498
0.03002432 0.08964891 0.6531299
0.02741905 0.08975425 0.6528146
0.02751835 0.08765002 0.6571408
0.07655265 0.09070349 0.6613665
0.0747477 0.09074248 0.6616737
0.07388055 0.09013594 0.6632577
0.01609132 0.09012309 0.6532272
0.06913321 0.08940741 0.6646795
0.07011413 0.09063791 0.6614078
0.06882912 0.09073729 0.6605554
0.0684462 0.08978958 0.6631847
0.06866576 0.0918964 0.6571752
0.0701763 0.09240277 0.6565005
0.06218133 0.09128734 0.6566921
0.06656614 0.09386357 0.6526564
0.06766158 0.09099394 0.6591517
0.06900972 0.09270159 0.6554778
0.0732445 0.09249847 0.6571889
0.07257131 0.09172917 0.6589348
0.07383658 0.09153593 0.659628
0.0778288 0.09768283 0.6468313
0.07634965 0.09773337 0.6456404
0.07499982 0.0980826 0.6448876
0.07643592 0.09854241 0.6441287
0.04624355 0.09563193 0.6452948
0.04489098 0.09631193 0.6444117
0.06463204 0.09334395 0.6529587
0.04293012 0.1013983 0.6313959
-0.005532823 0.1038841 0.6200113
-0.0006939179 0.1047925 0.6196405
0.02857535 0.1026276 0.6270493
0.02692097 0.1016572 0.6292224
0.04464034 0.1016973 0.6312115
0.0580349 0.1003122 0.635271
0.05936695 0.1003573 0.6358811
0.06630192 0.1030549 0.6318648
0.0472601 0.1021716 0.6301912
0.06445429 0.1032069 0.6310055
0.06515469 0.1030092 0.6318256
0.07541338 0.09989064 0.6408609
0.07512548 0.1013803 0.6382123
0.07365829 0.1009993 0.6380346
0.04454444 0.1003079 0.6334314
0.04562782 0.1000279 0.6342401
0.04472943 0.1010677 0.6323694
0.01981745 0.09952755 0.6335202
0.01972957 0.1013479 0.6294269
0.03758348 0.1017159 0.6304057
0.04077062 0.1014254 0.6315979
0.03306831 0.1005807 0.6326507
0.03597986 0.09995303 0.6342853
0.03790426 0.1003653 0.6340698
0.03907961 0.09991088 0.6351625
0.03422728 0.09943118 0.6347735
0.03476166 0.09872583 0.6361492
0.03284065 0.09891874 0.6356938
0.01736253 0.09812888 0.6370438
0.0233231 0.09865581 0.637094
0.02346033 0.1016908 0.629202
0.02817994 0.0987715 0.637089
0.02989686 0.0992005 0.6353019
0.03158468 0.09851111 0.6370156
0.02813996 0.1001106 0.6332271
0.04502629 0.09880993 0.639506
0.04339127 0.09867435 0.6396902
0.02630765 0.09541786 0.6433666
0.009202118 0.09669005 0.6396359
0.01687162 0.09566998 0.6415902
0.028542 0.09696435 0.6408647
0.02093441 0.09547041 0.6421632
0.01796309 0.09481364 0.6429974
0.02811693 0.09613024 0.6421972
0.02680237 0.09771995 0.6392996
0.03041847 0.09827665 0.6386303
0.02986366 0.09765136 0.6398661
0.04201607 0.09845605 0.6398963
0.04847035 0.09906204 0.6382939
0.05085816 0.09912708 0.6387662
0.07142283 0.1003566 0.638856
0.04634603 0.09843875 0.6405082
0.0446482 0.09817568 0.6409029
0.05210957 0.09954556 0.6376202
0.04688776 0.1001301 0.6346459
0.04770808 0.09962954 0.6361911
0.07008357 0.1004303 0.6380469
0.06939344 0.1014824 0.6344189
0.06358726 0.1005522 0.6367476
0.06724938 0.102882 0.6324015
0.06964728 0.102381 0.6328883
0.07456414 0.1004619 0.6394322
0.06753428 0.1034241 0.6312293
0.06969894 0.1008625 0.6364187
0.07652256 0.1013873 0.6385723
0.07392059 0.1018474 0.6366307
0.06640384 0.1000289 0.6383538
0.05764607 0.1000882 0.6368487
0.05615368 0.09999 0.6380726
0.06725577 0.09951154 0.6401643
0.06824714 0.1002848 0.6378847
0.06239546 0.09267014 0.6535442
0.05955093 0.09157658 0.6551113
0.05653507 0.09370999 0.6488554
0.05678071 0.09467981 0.6459817
0.05914195 0.09455839 0.6472685
0.08040328 0.09973341 0.6434194
0.0776723 0.1008744 0.6398999
0.07762919 0.1019782 0.6386734
0.07086566 0.1021985 0.6338303
0.07383164 0.1026917 0.6349357
0.07241571 0.1020547 0.6351078
0.07981129 0.1003648 0.6420397
0.0786678 0.1001128 0.6412618
0.07709962 0.0999563 0.6409634
0.0529389 0.09488942 0.6443052
0.05619037 0.09220363 0.6527978
0.05504505 0.09502861 0.6444167
0.07194573 0.09970536 0.6405136
0.07300834 0.1001815 0.639204
0.08093029 0.1013515 0.6424288
0.07363755 0.09893682 0.6430933
0.07446313 0.09933835 0.6421105
0.08359283 0.100598 0.645584
0.08265138 0.100205 0.6455256
0.0859993 0.09989444 0.6479307
0.07932043 0.09856695 0.6458497
