# .PCD v0.7 - Point Cloud Data file format
VERSION 0.7
FIELDS x y z
SIZE 4 4 4
TYPE F F F
COUNT 1 1 1
WIDTH 1492
HEIGHT 1
VIEWPOINT 0 0 0 1 0 0 0
POINTS 1492
DATA ascii
-0.06976598 0.0495165 0.6676943
-0.07278423 0.0485946 0.6701108
-0.06813369 0.04862588 0.6710374
-0.07420199 0.04675816 0.6747004
-0.07762892 0.04568357 0.6778463
-0.08426133 0.04686909 0.6758593
-0.08252069 0.04608919 0.6778907
-0.07684199 0.0490641 0.6713318
-0.07750926 0.04871986 0.6727117
-0.0783491 0.04890383 0.6711009
-0.09517347 0.04841315 0.6732161
-0.09371633 0.04843104 0.6738326
-0.1003472 0.04919475 0.6711389
-0.07259998 0.05015031 0.6669956
-0.07747558 0.05077913 0.6663215
-0.08928715 0.05142225 0.6665775
-0.0774564 0.04720101 0.675166
-0.07837247 0.04816058 0.6742166
-0.07603761 0.04509062 0.6786659
-0.07443424 0.04519266 0.6778181
-0.09684686 0.04588905 0.6787178
-0.09256411 0.0445197 0.6827987
-0.08922467 0.04444865 0.6835434
-0.09629177 0.04474976 0.6819022
-0.0942089 0.0448024 0.6813949
-0.0979929 0.04530496 0.6805342
-0.07918762 0.04558008 0.6788006
-0.07601604 0.04568575 0.6769705
-0.09221203 0.04514402 0.6810393
-0.09467273 0.04411272 0.6833367
-0.09863535 0.03971173 0.6925607
-0.09945167 0.03897716 0.6944241
-0.08757836 0.04400928 0.6843293
-0.08913011 0.04362406 0.6852854
-0.09090351 0.04397599 0.6840135
-0.08680729 0.03466209 0.7032509
-0.08735966 0.03574725 0.7008592
-0.08503425 0.03567833 0.7012733
-0.09158486 0.04052619 0.6910443
-0.09025221 0.04088477 0.6907397
-0.09443986 0.04000508 0.6915733
-0.09749736 0.04147448 0.6891032
-0.08749949 0.04029303 0.6923453
-0.09416072 0.04189829 0.6876929
-0.0820443 0.03795569 0.6970427
-0.08891198 0.04126038 0.6904935
-0.09073047 0.03997081 0.6923602
-0.09040512 0.03890796 0.6940151
-0.08891696 0.03878156 0.6943983
-0.0747688 0.04341838 0.6823313
-0.09667086 0.03858194 0.6937616
-0.09362346 0.03932498 0.6931506
-0.09331506 0.02181193 0.7291402
-0.09315903 0.02282348 0.7279218
-0.09138677 0.02204686 0.7287832
-0.08999411 0.038079 0.6955305
-0.08804864 0.038258 0.6955371
-0.08741549 0.03922574 0.6939138
-0.08073311 0.03713157 0.6980439
-0.08222992 0.03729105 0.6985942
-0.09765746 0.02406449 0.7263938
-0.1026459 0.02402011 0.7262495
-0.09969071 0.02488974 0.7247409
-0.09185205 0.03806241 0.6950652
-0.09215674 0.03911884 0.6936241
-0.09207028 0.0363852 0.6989116
-0.09394284 0.03663933 0.6976911
-0.09169213 0.03716927 0.696716
-0.09548081 0.02346677 0.727046
-0.09386909 0.0384188 0.6947412
-0.09295297 0.02437555 0.7258738
-0.09511323 0.03742681 0.6963773
-0.09348495 0.0343997 0.7037472
-0.09538513 0.03465784 0.7025324
-0.09265337 0.03541845 0.7014285
-0.09742598 0.03402954 0.703728
-0.09774953 0.03478322 0.7020376
-0.09714296 0.03366481 0.7053961
-0.0941168 0.02123828 0.7302597
-0.08978999 0.01740756 0.740229
-0.1000686 0.02924442 0.716416
-0.09853963 0.02090739 0.7321538
-0.09818643 0.01990727 0.734408
-0.1012617 0.02051514 0.7338952
-0.0921344 0.03341417 0.7055422
-0.09489072 0.03353536 0.7055159
-0.09670306 0.01857649 0.73835
-0.09447666 0.01819399 0.7391338
-0.09733098 0.01941049 0.7365277
-0.08452732 0.02079002 0.7323744
-0.08683435 0.020873 0.7320176
-0.1044288 0.02330801 0.7292206
-0.09772629 0.03821166 0.6949008
-0.09596663 0.03800811 0.6949011
-0.1056223 0.02155169 0.7329645
-0.1087274 0.02344575 0.7301341
-0.1039025 0.01995086 0.7362607
-0.1053723 0.01927567 0.7385732
-0.08977362 0.03591343 0.6999452
-0.0788538 0.03689328 0.6975246
-0.0871352 0.03753123 0.6967244
-0.09160997 0.0183962 0.7378347
-0.09242227 0.01781852 0.7402094
-0.08825689 0.02012165 0.7335399
-0.08649822 0.01946412 0.7352444
-0.08959375 0.01908256 0.7354233
-0.09158313 0.01707754 0.7420534
-0.09032827 0.02147341 0.7301037
-0.08942269 0.02077161 0.7317355
-0.08609682 0.02252722 0.7289196
-0.08341626 0.02236107 0.7293499
-0.08517651 0.02161434 0.7306978
-0.0888551 0.02229933 0.728684
-0.08747677 0.02330399 0.7268255
-0.09232718 0.02142739 0.7298827
-0.09149222 0.03280095 0.7084979
-0.08872466 0.0335635 0.7059936
-0.09870773 0.02720864 0.7212824
-0.0932126 0.02609872 0.7225267
-0.08233693 0.02475033 0.7258608
-0.0896057 0.02474411 0.7247019
-0.08573815 0.02475194 0.7246307
-0.08280153 0.02638616 0.7225488
-0.09398633 0.02875861 0.7173874
-0.08802929 0.02932294 0.7154731
-0.09215715 0.03139041 0.7123898
-0.08344741 0.02989801 0.7142649
-0.08525971 0.03403536 0.7057176
-0.07806358 0.02886348 0.7161897
-0.08062602 0.0383293 0.6941693
-0.07709522 0.02977687 0.7137715
-0.07616322 0.03050597 0.7118181
-0.07636964 0.03173353 0.7095723
-0.08160595 0.03170608 0.7110488
-0.07984103 0.03021857 0.714063
-0.08343647 0.03654155 0.6997424
-0.08367053 0.0375355 0.6980703
-0.08295813 0.03558825 0.7015901
-0.07173044 0.03439029 0.7022442
-0.07309651 0.03589274 0.6995162
-0.08546958 0.03770243 0.6973935
-0.08733978 0.03659099 0.6984782
-0.08255725 0.03472682 0.704082
-0.08076396 0.03540076 0.7017742
-0.07909034 0.03282671 0.7085435
-0.08243409 0.03331419 0.7073727
-0.07656419 0.03319929 0.7063907
-0.07650577 0.03443344 0.7029984
-0.07411151 0.03342173 0.7043988
-0.07836967 0.03541121 0.7012621
-0.07595 0.03575234 0.6998243
-0.079699 0.03609792 0.6994555
-0.07671288 0.03902015 0.6923031
-0.07829237 0.0386631 0.6929104
-0.08442564 0.04071382 0.6912804
-0.07901993 0.03822851 0.694232
-0.07203573 0.04010094 0.6901503
-0.07864736 0.03942475 0.6915292
-0.08376355 0.03834671 0.6962121
-0.08374155 0.03909673 0.6941937
-0.08059577 0.03981267 0.6913226
-0.08359529 0.03977935 0.692522
-0.08253392 0.04026542 0.691283
-0.07985086 0.03885104 0.6928201
-0.07726157 0.0380972 0.6939689
-0.07799723 0.03748634 0.6956806
-0.07331832 0.03994539 0.6916485
-0.0745866 0.03913377 0.6928577
-0.07529467 0.03998138 0.6910771
-0.08187329 0.03910303 0.6929937
-0.08203179 0.03844128 0.6950894
-0.07565906 0.03813314 0.6937401
-0.07384776 0.03777619 0.6947903
-0.07259997 0.03910617 0.6933824
-0.07128564 0.03971945 0.6920581
-0.07147287 0.03817677 0.6949805
-0.06956939 0.03586921 0.6992084
-0.07213687 0.03699063 0.6969562
-0.07072666 0.03899324 0.6935729
-0.06637556 0.03962928 0.690366
-0.06638769 0.03927121 0.6920154
-0.06886956 0.03931661 0.6926019
-0.06915088 0.03820054 0.6946808
-0.06998838 0.03994994 0.69051
-0.0736778 0.04197954 0.6858601
-0.0739456 0.04026331 0.689683
-0.07592992 0.04048651 0.6891719
-0.06920909 0.04167681 0.6869735
-0.06718873 0.04012863 0.6893271
-0.07275201 0.04079535 0.6886271
-0.06555554 0.04156631 0.686592
-0.06987627 0.04270703 0.684782
-0.06201366 0.04363508 0.6810479
-0.06351437 0.04466212 0.6794636
-0.06370796 0.0426892 0.68381
-0.06753448 0.04254729 0.6853223
-0.0717157 0.04283116 0.6845907
-0.07757309 0.04496453 0.6796553
-0.07592105 0.04435109 0.6806528
-0.07434469 0.04252768 0.6842492
-0.07452155 0.04470804 0.6794431
-0.07296068 0.04476897 0.6788211
-0.0733433 0.04435153 0.6801322
-0.09300232 0.04294813 0.6856189
-0.0985485 0.04393737 0.6839792
-0.09728985 0.0435688 0.6847026
-0.09849335 0.04319474 0.6859218
-0.09428402 0.04337886 0.6849446
-0.08971613 0.04172863 0.6893305
-0.08710301 0.04322935 0.6861526
-0.08550541 0.0435586 0.684732
-0.08341 0.04126488 0.6897755
-0.0888907 0.04254382 0.687463
-0.09660452 0.0431262 0.6858355
-0.09527836 0.04309557 0.6856694
-0.0957805 0.04171488 0.6884491
-0.09104074 0.04172213 0.687797
-0.0926831 0.04112522 0.6884641
-0.09550252 0.04259598 0.6868878
-0.1924469 0.0582318 0.6576068
-0.1271034 0.05781902 0.6547201
-0.1661708 0.05924819 0.6526011
-0.1441321 0.05884089 0.6526398
-0.1570841 0.0599042 0.6515214
-0.1477809 0.05847 0.653446
-0.1459595 0.05801861 0.6540521
-0.1336492 0.05948329 0.6498605
-0.1327966 0.05906834 0.6514062
-0.1311191 0.05906229 0.6513529
-0.1331999 0.05732923 0.6539156
-0.1320406 0.05823085 0.6527781
-0.1315413 0.05784163 0.6545366
-0.1906641 0.05786623 0.6586667
-0.1752117 0.05872789 0.6567058
-0.173207 0.05830934 0.6565385
-0.1719467 0.05861264 0.6551817
-0.1828552 0.05839792 0.6549104
-0.1721361 0.05764149 0.6578524
-0.174118 0.05799389 0.6578498
-0.1715699 0.06008863 0.6508826
-0.1228694 0.057524 0.655188
-0.1513695 0.05909095 0.6528408
-0.1293483 0.05922523 0.6514038
-0.04727139 0.05809908 0.647742
-0.1432033 0.05982696 0.6508391
-0.1420439 0.05905629 0.6520651
-0.1404203 0.059238 0.65135
-0.1390778 0.05766864 0.6538033
-0.1406875 0.05999614 0.6495784
-0.1770985 0.05778608 0.6585954
-0.1440432 0.06039892 0.649469
-0.155017 0.06022557 0.6505522
-0.1770868 0.05866413 0.6571548
-0.1784364 0.05921964 0.6538603
-0.1693876 0.05993614 0.6508988
-0.176662 0.05926703 0.6555436
-0.1367973 0.05902978 0.6515171
-0.1977383 0.06193732 0.647258
-0.1660413 0.06045806 0.6496211
-0.1651548 0.06091679 0.6481571
-0.1637345 0.06006274 0.649783
-0.1525561 0.06034509 0.6500788
-0.1569935 0.060636 0.6498048
-0.08726098 0.06091036 0.6437988
-0.08815147 0.06134243 0.6419837
-0.1187193 0.05592716 0.63612
-0.115573 0.05637031 0.6377054
-0.1131393 0.05722186 0.6390315
-0.1147711 0.0582889 0.6389923
-0.0817164 0.05966957 0.6459398
-0.08038261 0.06017394 0.6451045
-0.1475017 0.06164693 0.6458189
-0.1978261 0.06237443 0.6459411
-0.1965327 0.0621646 0.6461707
-0.1970738 0.06262805 0.644819
-0.1942872 0.06197834 0.6477242
-0.1951671 0.06221442 0.6464877
-0.1905984 0.06586131 0.6375675
-0.1439195 0.06347395 0.6427277
-0.1425783 0.06387788 0.6420007
-0.1420479 0.06311457 0.6435499
-0.1337919 0.06381106 0.6420178
-0.186016 0.06425148 0.6407319
-0.1864976 0.06486905 0.6388007
-0.1875572 0.06442439 0.6397328
-0.1897417 0.06409898 0.6411552
-0.1409499 0.06380264 0.6423397
-0.1457025 0.06500251 0.6400443
-0.1417957 0.06439326 0.64079
-0.07636797 0.06212872 0.6182867
-0.06663227 0.0705848 0.6210412
-0.07413951 0.06419423 0.6117867
-0.07432922 0.06562778 0.6126139
-0.07885409 0.06082879 0.626168
-0.07919177 0.06111666 0.6281905
-0.04773464 0.06708322 0.6270566
-0.06844289 0.06586037 0.6313138
-0.06844492 0.0650089 0.6332901
-0.09394745 0.05684047 0.6351296
-0.08500523 0.06182555 0.6324139
-0.09272803 0.05706228 0.6344541
-0.09184907 0.0579862 0.6343372
-0.124396 0.05886736 0.6352369
-0.1265023 0.05905651 0.6344698
-0.1280718 0.05739775 0.633164
-0.08483741 0.05674866 0.6305265
-0.08316893 0.05815787 0.6302736
-0.09544448 0.05661725 0.6359876
-0.1279562 0.05559584 0.6326448
-0.1221011 0.05616355 0.6348234
-0.07879368 0.05834451 0.6267604
-0.07846027 0.05920227 0.6245347
-0.08833436 0.06010837 0.6335052
-0.123657 0.06172961 0.6376925
-0.1228902 0.05993732 0.6364161
-0.1207152 0.05947875 0.6370432
-0.1198193 0.05789121 0.6364815
-0.1183359 0.05947716 0.6380647
-0.07813135 0.05950672 0.6229472
-0.07834871 0.05677336 0.6225232
-0.07858832 0.06321874 0.6252701
-0.07892034 0.05788043 0.6286412
-0.07984333 0.06345215 0.6300867
-0.07909805 0.06549944 0.6296641
-0.07893305 0.01681717 0.604919
-0.0369381 0.06937512 0.6210809
-0.03848084 0.06984171 0.6191714
-0.04505131 0.07470179 0.6102124
-0.04650691 0.07334493 0.6130775
-0.05313047 0.07228556 0.6169897
-0.05193995 0.07379076 0.6122797
-0.07256911 0.05910293 0.6048251
-0.07326996 0.06012454 0.6072223
-0.07316281 0.05882377 0.6062744
-0.07233663 0.06638291 0.6095546
-0.07286216 0.06484608 0.60945
-0.07691877 0.06153312 0.6194625
-0.07503548 0.05973001 0.6120589
-0.07438663 0.06270575 0.6116619
-0.07729344 0.06169559 0.6209253
-0.07782356 0.06009435 0.6216177
-0.07743072 0.06023004 0.6200103
-0.07776272 0.0570547 0.6176212
-0.07663541 0.06296222 0.6197307
-0.07803197 0.05844122 0.6219645
-0.07630052 0.06480364 0.619923
-0.07727858 0.06724422 0.6231709
-0.07578688 0.06571188 0.6183354
-0.06863712 0.07197323 0.618637
-0.05577872 0.07259291 0.6154923
-0.07147357 0.07206853 0.6041014
-0.07260296 0.07161722 0.6022429
-0.07171614 0.06886917 0.6023355
-0.07027551 0.07034714 0.6056282
-0.07140932 0.07031544 0.6034072
-0.05830004 0.07450706 0.6114228
-0.04702963 0.07438967 0.6109185
-0.05363871 0.07826694 0.6037393
-0.05567155 0.07835319 0.6034406
-0.0466741 0.07760334 0.6038249
-0.04685511 0.07845768 0.602158
-0.04839962 0.07944443 0.6005245
-0.03423859 0.08140215 0.5931576
-0.07802658 0.07744935 0.5946726
-0.07734875 0.07534068 0.5953297
-0.07828791 0.07579122 0.5932545
-0.07220895 0.06332603 0.5974654
-0.0746565 0.06251874 0.5946789
-0.07323551 0.06310303 0.5962028
-0.139618 0.0820031 0.5995293
-0.1438211 0.08324204 0.5985174
-0.139969 0.083129 0.5993287
-0.1388976 0.07456774 0.6016603
-0.1398066 0.0740089 0.6034229
-0.1372797 0.07580747 0.5981132
-0.1375315 0.07698846 0.5993057
-0.1537577 0.07559227 0.610142
-0.1523977 0.07582673 0.6085976
-0.1507805 0.07551723 0.6090707
-0.1533041 0.07894578 0.601696
-0.1480537 0.07664191 0.6052423
-0.1473382 0.07697411 0.6037481
-0.1490957 0.07710538 0.6040078
-0.1502413 0.07787009 0.6028766
-0.145045 0.01412156 0.5850513
-0.1483934 0.07771152 0.6025252
-0.1495892 0.07851863 0.6015868
-0.1457512 0.07959764 0.6003516
-0.1528499 0.07990897 0.6001307
-0.1503273 0.07966536 0.6002236
-0.1483562 0.08057096 0.599366
-0.1486601 0.08233101 0.5976269
-0.1571416 0.07836153 0.6042565
-0.1549978 0.07961853 0.6006386
-0.1477623 0.07877714 0.601
-0.1594188 0.07928178 0.6029565
-0.151628 0.07522313 0.6104261
-0.1485751 0.07531629 0.6118616
-0.1504314 0.07478764 0.6121371
-0.1526267 0.07477426 0.6122749
-0.1487048 0.07631522 0.6069125
-0.147368 0.07489979 0.6133172
-0.145964 0.07388057 0.61474
-0.1483131 0.07376061 0.6151904
-0.1500262 0.07271542 0.6175545
-0.145023 0.07287206 0.6159073
-0.1536409 0.07165697 0.6204067
-0.1526377 0.07224528 0.6189991
-0.1461869 0.07068674 0.6220654
-0.1483134 0.07148971 0.6202264
-0.1507069 0.07175311 0.6198747
-0.1465188 0.07257664 0.6175038
-0.1484123 0.0702405 0.6227349
-0.152239 0.07133488 0.620896
-0.1359953 0.06583468 0.6237115
-0.1357078 0.06349638 0.6239327
-0.1352154 0.06477255 0.6247646
-0.1336846 0.06145618 0.6274675
-0.1346738 0.06113304 0.6256208
-0.1378336 0.06507905 0.620491
-0.1387741 0.06490812 0.6191328
-0.1468461 0.0696288 0.6237155
-0.1356242 0.06082052 0.6237921
-0.1380647 0.06295469 0.6198337
-0.1368116 0.06306869 0.621973
-0.1421565 0.06937622 0.6124882
-0.1415791 0.06879278 0.6045704
-0.1418058 0.07078823 0.6059137
-0.1406671 0.07136131 0.6040044
-0.1390695 0.06965867 0.5997691
-0.139974 0.06850194 0.6011535
-0.1393917 0.07062374 0.6009924
-0.1396745 0.07210945 0.6022239
-0.1386847 0.07289205 0.6003456
-0.1353471 0.06175364 0.5866727
-0.1384916 0.05767759 0.5906422
-0.1374279 0.06175768 0.591408
-0.1327664 0.06052871 0.6304885
-0.1334001 0.06262883 0.6285664
-0.1330158 0.06125632 0.6290383
-0.1345526 0.06511673 0.6259305
-0.1352956 0.06634066 0.6248865
-0.1248251 0.06041376 0.6358441
-0.1364876 0.05695979 0.6214945
-0.1369222 0.0603298 0.6216351
-0.139476 0.06390013 0.6177797
-0.1415463 0.0689574 0.6139452
-0.1339263 0.06378473 0.6273297
-0.1381197 0.05530674 0.6179615
-0.1405992 0.06346382 0.6153115
-0.1406154 0.06565872 0.6161757
-0.1408824 0.06980839 0.6167631
-0.1426006 0.06819127 0.6061025
-0.1430411 0.06942461 0.6075709
-0.1412364 0.06735922 0.6148327
-0.141837 0.06774017 0.6123925
-0.1403155 0.06402232 0.5990304
-0.1402539 0.06553154 0.5999883
-0.1391251 0.06667944 0.5978405
-0.1427407 0.06288973 0.60431
-0.141376 0.06568196 0.6026251
-0.141918 0.06416276 0.6029206
-0.1407676 0.06731746 0.6023244
-0.1405203 0.06652892 0.6012284
-0.1414475 0.06698855 0.6036123
-0.1423307 0.06650512 0.6051058
-0.1430622 0.06448466 0.6056509
-0.1431554 0.06615081 0.606603
-0.1408869 0.06137696 0.6137186
-0.1425467 0.06115547 0.6030707
-0.1421086 0.05993733 0.6012217
-0.142187 0.06499818 0.6040341
-0.142066 0.05890759 0.6090608
-0.142257 0.05690528 0.6090683
-0.1413457 0.05753246 0.6114296
-0.1402031 0.05533754 0.6135633
-0.1402389 0.05833122 0.6144019
-0.1414503 0.05989259 0.6113926
-0.1414956 0.06562695 0.6137497
-0.1543907 0.07210848 0.619597
-0.1546465 0.07274512 0.6181443
-0.1761611 0.07140355 0.6255351
-0.1814788 0.07193866 0.6274501
-0.1829362 0.07189774 0.6277449
-0.1724506 0.07031109 0.627728
-0.1776556 0.07105311 0.6268102
-0.1681316 0.07266157 0.6196425
-0.1778506 0.0718248 0.6250659
-0.1588854 0.07240775 0.6210626
-0.155229 0.07352489 0.6161563
-0.1779298 0.07303953 0.6207241
-0.17821 0.0725873 0.6230879
-0.1731423 0.07092398 0.6260862
-0.1737581 0.07051616 0.6274266
-0.1761832 0.0697744 0.6287314
-0.1747572 0.06942447 0.6297103
-0.1734915 0.06993484 0.6288454
-0.1558852 0.07220785 0.6195644
-0.1731077 0.0689743 0.6305513
-0.1774439 0.06908168 0.6309415
-0.1713688 0.06845839 0.6309808
-0.190207 0.06957681 0.629501
-0.1879224 0.06926247 0.6300982
-0.1801074 0.07338956 0.6201344
-0.1817856 0.07282362 0.6221855
-0.1827735 0.07358373 0.6192544
-0.1858705 0.0710315 0.6276007
-0.1896853 0.06878364 0.6316487
-0.1856266 0.0687079 0.6318095
-0.1858114 0.06999946 0.6296887
-0.1873613 0.07020075 0.6282513
-0.1860036 0.06760776 0.6336374
-0.1879514 0.06652895 0.6358539
-0.1754666 0.0669115 0.6341832
-0.1752606 0.06623908 0.6357087
-0.1754966 0.06739228 0.632769
-0.1746519 0.06822342 0.6315771
-0.1800988 0.06627174 0.6369867
-0.1888164 0.06786377 0.6331788
-0.1902611 0.06807398 0.6335533
-0.1890875 0.06734039 0.6346076
-0.1863084 0.06664436 0.6352802
-0.1904336 0.06729252 0.634905
-0.1710566 0.0668501 0.6340623
-0.169028 0.06718987 0.6333972
-0.1865854 0.06561297 0.6369818
-0.1768261 0.06753854 0.6332986
-0.1918143 0.0688475 0.6324903
-0.1707117 0.06764609 0.6324468
-0.172534 0.06773396 0.6325129
-0.1696094 0.07305272 0.6192397
-0.1711572 0.0732139 0.6189929
-0.1686331 0.07369471 0.6179402
-0.1896259 0.06663819 0.6361885
-0.1846369 0.06694711 0.6349175
-0.1649933 0.06836499 0.6300097
-0.1658321 0.06775618 0.6316988
-0.1678178 0.06784608 0.6316547
-0.1893173 0.07022864 0.6278801
-0.1742424 0.07174289 0.6244307
-0.1680888 0.07174298 0.6213035
-0.1695757 0.07172873 0.6216956
-0.1721376 0.07211368 0.6224734
-0.1721243 0.07134552 0.6243094
-0.1759069 0.072766 0.6202023
-0.1815502 0.07601058 0.6141508
-0.1820589 0.07472625 0.616406
-0.1859002 0.07349503 0.6190593
-0.1845062 0.07453477 0.6169444
-0.1741855 0.07295011 0.6194431
-0.1770985 0.07351891 0.6180242
-0.1743851 0.07402629 0.6175198
-0.1757765 0.07328019 0.6184933
-0.1783914 0.07351916 0.6187961
-0.17618 0.07212475 0.6236137
-0.1822867 0.07138357 0.6289353
-0.1839611 0.07104057 0.6290388
-0.1826402 0.07228649 0.6258263
-0.180818 0.07238199 0.6255071
-0.1793288 0.07222544 0.6248135
-0.1729407 0.07429271 0.6172027
-0.180253 0.07266681 0.6236312
-0.1830452 0.07237552 0.6238661
-0.1841367 0.07210909 0.624808
-0.1702792 0.07396489 0.6178282
-0.1759983 0.07583998 0.6141841
-0.1753081 0.0750526 0.6159064
-0.1744448 0.07545238 0.614887
-0.1672947 0.07436347 0.6160237
-0.1730564 0.07540441 0.614834
-0.1717197 0.07406309 0.617563
-0.1695973 0.07464568 0.6163557
-0.176558 0.08229735 0.5980595
-0.159334 0.07451287 0.6145125
-0.1537715 0.07414069 0.6143302
-0.15583 0.07431096 0.6143679
-0.1575125 0.07484473 0.6134784
-0.1595011 0.07545432 0.6127265
-0.157815 0.07585592 0.6113622
-0.161394 0.07589588 0.612078
-0.1616814 0.07664692 0.6106359
-0.1707695 0.07615764 0.6132629
-0.1725641 0.07622485 0.6134531
-0.1743464 0.07611411 0.6135592
-0.1704258 0.07662977 0.6116644
-0.1761526 0.07687302 0.6122108
-0.1790607 0.0785797 0.6077907
-0.1771235 0.07869395 0.6083
-0.1751965 0.07876233 0.6079886
-0.1727454 0.07909176 0.6059497
-0.1586176 0.09582655 0.5651062
-0.1610407 0.09643435 0.5646258
-0.1724294 0.08005644 0.6036054
-0.1735291 0.07970648 0.6045622
-0.1795472 0.07957357 0.60501
-0.1780609 0.08008516 0.6034687
-0.1734933 0.07856685 0.6075409
-0.1777966 0.07958001 0.6054304
-0.17791 0.07905086 0.6068655
-0.1721127 0.07678922 0.6118454
-0.1754972 0.07790698 0.6100548
-0.1733207 0.07743133 0.6103339
-0.1740316 0.07819159 0.6090142
-0.172528 0.07790324 0.6088765
-0.1715323 0.0771239 0.6102531
-0.1717943 0.07835561 0.6072461
-0.1601979 0.08065793 0.5996423
-0.1605145 0.08110852 0.5984398
-0.1620408 0.08002653 0.601966
-0.1629133 0.07715339 0.6095249
-0.155159 0.07858586 0.6026939
-0.1547953 0.08583435 0.5887024
-0.1518735 0.08577061 0.5897976
-0.1543764 0.08506138 0.5906574
-0.1455115 0.08411884 0.596635
-0.1619163 0.07866046 0.6058968
-0.1639208 0.07844948 0.6064767
-0.1544615 0.076479 0.6078781
-0.1528073 0.07652878 0.6068923
-0.1544177 0.07745552 0.6053367
-0.1583829 0.07949342 0.6016174
-0.1600998 0.07786684 0.6073698
-0.1586715 0.07688421 0.6092289
-0.1561752 0.07621294 0.6095874
-0.1623782 0.07794228 0.607789
-0.1551801 0.08077432 0.5986258
-0.1595527 0.07857879 0.6052197
-0.1636821 0.07915589 0.6047069
-0.1635195 0.07973328 0.6031634
-0.1585371 0.08009259 0.6003065
-0.1600112 0.08002529 0.6011315
-0.1590576 0.08084103 0.598752
-0.156846 0.07945707 0.6012139
-0.116609 0.04195349 0.5605829
-0.1757135 0.07982077 0.6043165
-0.1673207 0.08768891 0.5849615
-0.1759444 0.08066736 0.6013913
-0.1758612 0.0813835 0.5992634
-0.1733094 0.08101866 0.6010613
-0.1554505 0.0934281 0.5706201
-0.1385415 0.1106828 0.5291164
-0.1209669 0.02394705 0.5502701
-0.1225419 0.02507339 0.5514802
-0.158515 0.09672467 0.5631562
-0.1571845 0.09802283 0.5599726
-0.1223947 0.03027984 0.5544236
-0.1198393 0.03302969 0.5549072
-0.1201832 0.03071643 0.5530782
-0.1521452 0.09426545 0.5655159
-0.1540685 0.09405717 0.5652903
-0.1511048 0.09517827 0.5635947
-0.1196218 0.02908195 0.5515175
-0.1546649 0.09344885 0.5677351
-0.1556785 0.09425879 0.565548
-0.1551488 0.09472243 0.5641901
-0.1573458 0.09485528 0.5662566
-0.1559637 0.09392934 0.5672059
-0.1148394 0.03350135 0.55392
-0.115144 0.03155474 0.552932
-0.1568491 0.09525203 0.5644116
-0.1228372 0.1026867 0.5489103
-0.1254371 0.100548 0.5530339
-0.1533807 0.09365793 0.5669963
-0.1513461 0.09401728 0.5680125
-0.1498266 0.09455888 0.5658916
-0.1459859 0.0934383 0.5708318
-0.146534 0.09405271 0.5686205
-0.1554915 0.09286211 0.5723465
-0.1473679 0.09188183 0.5737507
-0.1589102 0.09380429 0.5711207
-0.1589465 0.09429242 0.5698506
-0.1573285 0.09372402 0.5701112
-0.1622273 0.09359247 0.5729432
-0.1639864 0.09409399 0.5725747
-0.1557781 0.09365166 0.5688893
-0.158851 0.09332983 0.5723181
-0.1575882 0.09279504 0.5731521
-0.1600166 0.09286292 0.5734802
-0.1639161 0.09335919 0.5737731
-0.1621895 0.09259115 0.5742454
-0.1624962 0.09564475 0.5668665
-0.160323 0.09481882 0.5687202
-0.1628868 0.09506119 0.5694682
-0.1625975 0.09437829 0.5715198
-0.1536677 0.0935835 0.5691246
-0.1428296 0.09402477 0.5682991
-0.1448472 0.0945842 0.5668166
-0.1455714 0.09630311 0.5628319
-0.1473016 0.09472917 0.5660465
-0.1345801 0.09398111 0.5679205
-0.1497256 0.09648876 0.5612456
-0.1425666 0.09505053 0.5656628
-0.1361987 0.09507752 0.5661653
-0.1373332 0.09664212 0.5629477
-0.1405392 0.09527826 0.5658135
-0.141042 0.09448537 0.5676672
-0.1387685 0.09549576 0.565555
-0.1479023 0.09865078 0.557794
-0.1485666 0.1036058 0.5481827
-0.1408523 0.1011364 0.5532135
-0.08450934 0.09445769 0.5674475
-0.1137058 0.09374155 0.5696832
-0.1149996 0.09311448 0.5716947
-0.1155906 0.09414244 0.5695007
-0.07271286 0.0886536 0.5788127
-0.0941302 0.09172096 0.5740468
-0.1150729 0.09489255 0.5666648
-0.1158353 0.09539567 0.5652397
-0.05196173 0.0940308 0.5662622
-0.1148169 0.09557854 0.5635427
-0.1201854 0.09465595 0.5671631
-0.05526042 0.09287868 0.5684584
-0.09159679 0.09444973 0.567021
-0.08834121 0.09458653 0.5667937
-0.04960835 0.0933046 0.5680292
-0.05492702 0.09489885 0.5638198
-0.05483728 0.09559739 0.5617427
-0.05078077 0.09459066 0.5655999
-0.08497623 0.09316562 0.5692577
-0.08276843 0.09367831 0.5687733
-0.1294198 0.1088949 0.5346205
-0.1296322 0.1069087 0.5392841
-0.1328349 0.1080451 0.5360756
-0.05543474 0.0963659 0.5600983
-0.05708117 0.09329051 0.5677418
-0.05862567 0.09381005 0.5670661
-0.04903156 0.09455676 0.5661148
-0.06716059 0.09695797 0.5594298
-0.06690625 0.09552499 0.5625466
-0.1344103 0.1095913 0.5317546
-0.1185148 0.09704131 0.5596754
-0.1209088 0.0960853 0.5625718
-0.1087771 0.09417094 0.5655408
-0.1114343 0.095289 0.5637544
-0.1125996 0.09451583 0.5656119
-0.1101719 0.09703288 0.5607692
-0.05682471 0.09471032 0.5645421
-0.06045057 0.09711169 0.5586275
-0.1217217 0.09403932 0.5677927
-0.1250418 0.09464178 0.5656068
-0.07338713 0.09656821 0.5614114
-0.0735182 0.09549408 0.5635898
-0.1248778 0.09646686 0.5609133
-0.1159802 0.09644854 0.560966
-0.09314812 0.09245249 0.5719247
-0.09487996 0.0930142 0.5706995
-0.09715634 0.09321781 0.570116
-0.07098477 0.09733946 0.5592339
-0.06785276 0.09869701 0.5559627
-0.09966736 0.09340377 0.5703285
-0.07429738 0.0975923 0.5597485
-0.07016951 0.0947989 0.5652775
-0.07494766 0.09474312 0.5664566
-0.05726881 0.09413525 0.5661835
-0.08585657 0.0983313 0.5590317
-0.08319081 0.09702827 0.5609569
-0.0896811 0.09897073 0.557233
-0.08140262 0.09590264 0.5635371
-0.07845806 0.09520244 0.5652172
-0.0583234 0.09730767 0.5579562
-0.07667524 0.09809285 0.5582364
-0.05649021 0.09540768 0.5626131
-0.05849168 0.0952972 0.5633656
-0.05785094 0.09587691 0.5613688
-0.05694243 0.09642535 0.5601904
-0.09321357 0.09752887 0.5605807
-0.09276149 0.09507124 0.5655586
-0.09540771 0.09568901 0.5645773
-0.07733986 0.09137778 0.5737334
-0.08072642 0.091512 0.5738242
-0.06095054 0.09492833 0.5647882
-0.08087961 0.09854569 0.5570383
-0.07551039 0.09991799 0.554118
-0.04917908 0.09612413 0.5611584
-0.0466844 0.09533177 0.5619605
-0.1090797 0.09526146 0.5637255
-0.08440405 0.09601586 0.5632205
-0.1046646 0.09545948 0.5637211
-0.1027803 0.09702241 0.5606654
-0.05058695 0.09386124 0.5668123
-0.08654223 0.09506741 0.5662912
-0.0841888 0.09571672 0.5654068
-0.05341306 0.09447441 0.5651954
-0.1047723 0.09377973 0.567479
-0.1070877 0.09486967 0.5645163
-0.0650849 0.09295088 0.5698411
-0.06796079 0.09276097 0.5711141
-0.06702624 0.09381394 0.5678429
-0.06634799 0.09465323 0.5650363
-0.06391064 0.09441991 0.5660712
-0.04739542 0.0936221 0.5680887
-0.04877325 0.09259759 0.5696583
-0.05004591 0.09206489 0.5710325
-0.04826098 0.09185347 0.571333
-0.1007276 0.09274346 0.5722113
-0.07831657 0.094403 0.5677672
-0.07782415 0.09262178 0.5708968
-0.07597627 0.09350961 0.569605
-0.08179127 0.09295918 0.5703131
-0.06175448 0.09418029 0.5670213
-0.101943 0.09577937 0.5640085
-0.09834292 0.09725572 0.561044
-0.05944221 0.09221544 0.5704724
-0.100905 0.09393051 0.5684569
-0.09787176 0.09414466 0.567748
-0.08044219 0.09362806 0.5688572
-0.0785004 0.09333737 0.5694595
-0.1058538 0.0943589 0.5659935
-0.1092057 0.09273213 0.5722883
-0.1106499 0.09334017 0.5706791
-0.1160516 0.09479857 0.5678648
-0.1164411 0.09516563 0.5665504
-0.118664 0.09384628 0.5696936
-0.1187987 0.09460586 0.5680729
-0.1202165 0.09380988 0.5687894
-0.1235294 0.09438191 0.5669919
-0.1344363 0.09614086 0.5634926
-0.1352703 0.09750635 0.5606796
-0.1315072 0.09552159 0.5638871
-0.1265421 0.09604128 0.562435
-0.126623 0.09494918 0.5645935
-0.1269014 0.09714431 0.5596882
-0.1298831 0.09479806 0.5657066
-0.1287072 0.09537765 0.5639532
-0.1384401 0.1082538 0.5353935
-0.1386094 0.1094076 0.5331024
-0.139059 0.1070898 0.5388473
-0.1419171 0.1088686 0.5358484
-0.1381153 0.1098696 0.5307467
-0.1449533 0.1131904 0.5285909
-0.1344438 0.1088266 0.5340543
-0.1364573 0.109013 0.5335708
-0.1480184 0.1116501 0.5322658
-0.1441353 0.1106681 0.5324467
-0.1403446 0.1102998 0.5318177
-0.1525723 0.09847032 0.5581874
-0.1567815 0.1004125 0.5549395
-0.1552579 0.1034857 0.5493791
-0.1521841 0.1066232 0.5433787
-0.1239656 0.1072371 0.5392509
-0.1192638 0.1045273 0.5431727
-0.1230866 0.1088401 0.5350868
-0.1359631 0.1013815 0.5528298
-0.1305765 0.1004029 0.5537862
-0.1348329 0.1065535 0.5398475
-0.1384407 0.1045306 0.5441704
-0.0929205 0.1036482 0.5459318
-0.08501829 0.09992544 0.5545321
-0.08740573 0.1024541 0.5479147
-0.09046394 0.1027673 0.5476763
-0.1123891 0.1061939 0.5397595
-0.09373514 0.1020885 0.5498276
-0.09948529 0.1034421 0.546575
-0.09792237 0.1014425 0.5507048
-0.1091983 0.09981085 0.5535601
-0.1169876 0.0983423 0.5576795
-0.1114828 0.1018548 0.5494187
-0.09730594 0.1046883 0.5438896
-0.09969972 0.104717 0.5432383
-0.1035938 0.02513472 0.5490651
-0.1169276 0.02840943 0.5507686
-0.1071762 0.02554948 0.5487989
-0.1014537 0.05348169 0.5648797
-0.1127352 0.02731972 0.5494087
-0.1048064 0.05343623 0.5635641
-0.1050817 0.05118895 0.562407
-0.1075829 0.05522607 0.5634347
-0.09029548 0.02783957 0.5588663
-0.08825323 0.02578154 0.5597216
-0.11006 0.02511822 0.5481573
-0.1091528 0.02911873 0.5517539
-0.1079285 0.02803243 0.5505965
-0.1139669 0.05398235 0.5650902
-0.1162402 0.05448027 0.5662973
-0.08658653 0.04270361 0.5671291
-0.08660463 0.04558723 0.5684879
-0.1135442 0.0570814 0.5663221
-0.1118651 0.05634573 0.5652736
-0.1104767 0.02956748 0.5525577
-0.1121095 0.02857453 0.5512719
-0.1163614 0.02405566 0.5482404
-0.1153383 0.02562943 0.5480658
-0.1143748 0.02435443 0.5480388
-0.1180959 0.02422022 0.5487221
-0.1123004 0.02474058 0.5479139
-0.1114775 0.02632844 0.5487379
-0.1074412 0.03000632 0.5520164
-0.1122565 0.03702103 0.5566424
-0.1138417 0.0503145 0.5633907
-0.114208 0.05227832 0.5644372
-0.1109642 0.02755195 0.550276
-0.1143315 0.02685561 0.5486817
-0.1157546 0.02685801 0.5489458
-0.1174339 0.02669057 0.5495319
-0.1226187 0.02269655 0.5510791
-0.1250664 0.02943445 0.5565528
-0.124366 0.02657839 0.5535205
-0.1121388 0.04545147 0.5606536
-0.1111467 0.04339755 0.5595728
-0.1135339 0.04673725 0.561441
-0.1117324 0.04770609 0.5615421
-0.1138284 0.05550032 0.5658112
-0.1101405 0.03120622 0.5535531
-0.11411 0.02783933 0.5500506
-0.1156484 0.02806496 0.5504965
-0.1152621 0.06174648 0.5691913
-0.1132689 0.06349906 0.5690421
-0.1158963 0.05907125 0.5681592
-0.1133621 0.05876168 0.5669423
-0.1209601 0.0182117 0.5593153
-0.1224157 0.01830427 0.5582767
-0.1135969 0.03075833 0.5533606
-0.115445 0.02968013 0.5518174
-0.1094446 0.03328324 0.5543861
-0.1081181 0.03188986 0.5533154
-0.1110753 0.03423663 0.5552698
-0.108691 0.0356871 0.5553266
-0.1094794 0.02678676 0.549522
-0.1127587 0.03484856 0.5557172
-0.1055294 0.03188919 0.552811
-0.1101044 0.03852412 0.556942
-0.1111763 0.05083884 0.5629386
-0.1098163 0.0521672 0.5629014
-0.1114896 0.04938802 0.562351
-0.1137315 0.0483094 0.5622847
-0.1095287 0.05023427 0.5619475
-0.109895 0.04852954 0.5613619
-0.1118169 0.05327014 0.5640877
-0.1096211 0.05418508 0.5636707
-0.1051163 0.09961674 0.553974
-0.1177189 0.06542169 0.5725048
-0.1193256 0.06675928 0.5743556
-0.1154716 0.0674132 0.5726002
-0.113627 0.07085831 0.5734041
-0.1122613 0.07223634 0.573316
-0.1049559 0.06870923 0.5703013
-0.1021812 0.06906912 0.5721192
-0.09937838 0.06789494 0.5728443
-0.1016013 0.0653993 0.5708145
-0.1024541 0.09451123 0.5667951
-0.1058233 0.05994851 0.5663115
-0.09938931 0.06278 0.5705497
-0.1014707 0.06230472 0.5693237
-0.1001777 0.05978581 0.5688701
-0.1037496 0.06139307 0.5678849
-0.1312575 0.01811716 0.5621977
-0.1304852 0.018169 0.5636702
-0.1220205 0.01796816 0.5613427
-0.1281629 0.01781169 0.5645028
-0.1293684 0.01880134 0.5622937
-0.1310177 0.01715386 0.5653902
-0.1269501 0.01844927 0.5598118
-0.1271138 0.01873666 0.5617983
-0.1241212 0.01802233 0.5578806
-0.1178594 0.01754649 0.561144
-0.1122533 0.01684335 0.5612316
-0.1151692 0.01559568 0.5656947
-0.1125017 0.01882926 0.5559697
-0.1151779 0.01882009 0.5553446
-0.110564 0.01797802 0.5578839
-0.1069295 0.01670136 0.5598759
-0.1177407 0.01850971 0.5559213
-0.1189559 0.01828067 0.5579916
-0.105572 0.01793762 0.5554416
-0.1246246 0.0178707 0.56331
-0.1260781 0.01790987 0.558468
-0.1248618 0.0184073 0.560299
-0.1247917 0.01622579 0.5673046
-0.1318755 0.01956611 0.5573923
-0.1315255 0.01724837 0.5605332
-0.1329355 0.01658602 0.5653349
-0.1348558 0.01501949 0.568652
-0.1318874 0.01451886 0.5708995
-0.1325049 0.01593251 0.5673263
-0.1382112 0.01841056 0.5650347
-0.1398173 0.01606219 0.5687314
-0.1408825 0.01813572 0.5736217
-0.1403469 0.02071904 0.5748848
-0.1357094 0.0234754 0.5626705
-0.136539 0.02045182 0.5616935
-0.1376286 0.01874112 0.5631171
-0.1375394 0.02009965 0.5651259
-0.1321694 0.02229411 0.5583553
-0.1339554 0.02212463 0.5594814
-0.1312454 0.02495977 0.5590419
-0.1334531 0.01974003 0.5587201
-0.134156 0.01764454 0.5586184
-0.1350407 0.0214275 0.5605966
-0.1352122 0.01869678 0.5586624
-0.1354604 0.01731551 0.5593517
-0.1358683 0.01926714 0.5597752
-0.1133714 0.01899477 0.5543157
-0.1151076 0.01883329 0.553807
-0.1193456 0.02305013 0.5496528
-0.1239715 0.02067406 0.5530558
-0.1211492 0.01902012 0.5536766
-0.1121405 0.01901872 0.5531309
-0.1093986 0.01872744 0.5541477
-0.1250936 0.02159731 0.5531264
-0.1232504 0.01949189 0.5536839
-0.128168 0.02297019 0.5546292
-0.1267606 0.02132916 0.5538664
-0.1242931 0.02348013 0.552182
-0.1258875 0.02359102 0.5539604
-0.1294356 0.02194809 0.5560503
-0.1289449 0.0247437 0.5567279
-0.1297674 0.01975161 0.5558275
-0.1291705 0.01824958 0.5565982
-0.1307681 0.02104035 0.55689
-0.1237793 0.02177963 0.5520836
-0.120737 0.02186137 0.5506452
-0.122191 0.02083191 0.552242
-0.1196238 0.02022807 0.5518193
-0.1189351 0.02157202 0.5505361
-0.1130978 0.02309153 0.5485247
-0.1175403 0.02056727 0.5508498
-0.1173402 0.02233604 0.5494559
-0.1153567 0.0208393 0.5500982
-0.1121581 0.02163192 0.5484635
-0.1137641 0.0214678 0.5491244
-0.1103585 0.0188881 0.5530998
-0.1085288 0.01856676 0.5528289
-0.09208886 0.01190214 0.5639244
-0.08797479 0.01000502 0.5668355
-0.08580638 0.01001401 0.5676693
-0.09892015 0.01480642 0.561453
-0.1006214 0.01575555 0.5593132
-0.09818953 0.01565673 0.5586081
-0.1030572 0.01646411 0.5587605
-0.0984771 0.01897375 0.5529342
-0.09088971 0.0189816 0.5565828
-0.09177043 0.0180538 0.5559381
-0.09318581 0.01843611 0.5558355
-0.09756041 0.02360961 0.5503492
-0.09803465 0.0254247 0.5511194
-0.09764416 0.02043268 0.5536518
-0.09332111 0.01449488 0.5601237
-0.1012103 0.01640772 0.5574359
-0.1024999 0.01698725 0.5563841
-0.1047399 0.01740219 0.5570691
-0.1010483 0.02657648 0.550855
-0.09866194 0.02780335 0.5526278
-0.0923812 0.02228907 0.5520324
-0.09362429 0.02438108 0.5524986
-0.08746089 0.02255069 0.5570874
-0.1015206 0.03076754 0.5533775
-0.09670592 0.03020451 0.5549433
-0.09373549 0.02696526 0.5545065
-0.09305705 0.02945763 0.5569863
-0.09071502 0.02220041 0.5528659
-0.09045508 0.02339533 0.5539533
-0.08957065 0.02224181 0.5537504
-0.08314375 0.02052183 0.5601797
-0.08598069 0.02047369 0.5574006
-0.08690896 0.02139609 0.556608
-0.09177037 0.02491373 0.5541672
-0.08171663 0.01898493 0.5610096
-0.08232575 0.01120844 0.5684674
-0.08374637 0.01069184 0.5681572
-0.08278022 0.01179161 0.5673128
-0.07793673 0.01504582 0.5666279
-0.08104455 0.01674019 0.5607302
-0.08021078 0.01747678 0.5629626
-0.07994927 0.01554304 0.5632828
-0.07895619 0.01593813 0.5646155
-0.05189137 0.09488634 0.564806
-0.08166689 0.02812754 0.5689242
-0.08877321 0.05100734 0.569359
-0.09285758 0.05408488 0.5690309
-0.09495715 0.05826858 0.5700485
-0.0983358 0.05683636 0.5679204
-0.08198751 0.03793421 0.5699114
-0.08862588 0.04604343 0.5667625
-0.09082849 0.04498936 0.5644553
-0.08844867 0.02759568 0.5610367
-0.08713963 0.05528065 0.571597
-0.1063099 0.0580551 0.5652298
-0.09739245 0.05348921 0.5664812
-0.09793763 0.05032555 0.5647764
-0.08280354 0.02266543 0.5623355
-0.08190587 0.02584318 0.5660258
-0.0805582 0.02285964 0.5665935
-0.08322611 0.02728286 0.5646207
-0.08154412 0.03165351 0.570301
-0.08323381 0.030811 0.5655333
-0.08170792 0.02716569 0.56753
-0.08320185 0.02893983 0.5656158
-0.09162107 0.03130565 0.5595112
-0.08257473 0.03467248 0.5687281
-0.0860284 0.04972476 0.5697385
-0.0834288 0.04953168 0.5707828
-0.08538786 0.04833507 0.5700681
-0.08760938 0.04808525 0.5686793
-0.09509955 0.04661198 0.5638663
-0.09938566 0.04763908 0.5629636
-0.08634427 0.04108743 0.5673361
-0.08743297 0.04174964 0.5663168
-0.09025562 0.03675392 0.5641819
-0.1078692 0.03854435 0.5565147
-0.08520262 0.04489334 0.5698487
-0.09167896 0.03702333 0.5625165
-0.09197102 0.03461356 0.5608178
-0.09227269 0.04010549 0.5616039
-0.09137339 0.0387058 0.5639996
-0.1040547 0.03478012 0.5549236
-0.09975677 0.03553826 0.5569984
-0.1005629 0.04099157 0.559813
-0.1063468 0.03659008 0.5555379
-0.1089764 0.04430273 0.5587996
-0.1097974 0.04578571 0.5600597
-0.1080966 0.04647532 0.5595974
-0.1069307 0.04439395 0.55898
-0.1060119 0.04671396 0.5601174
-0.1041176 0.04370905 0.559475
-0.1055269 0.04907103 0.5612131
-0.1028176 0.04864469 0.5621085
-0.1012067 0.04547968 0.5609477
-0.09070047 0.042592 0.5627761
-0.08915365 0.04270353 0.5640946
-0.08937873 0.0411642 0.5648034
-0.08793599 0.04357982 0.5656065
-0.08901291 0.03955271 0.5658388
-0.08744543 0.04013834 0.5666865
-0.08699228 0.03817676 0.5664823
-0.08826353 0.04201986 0.5652454
-0.08836257 0.04094151 0.5659207
-0.0903105 0.03859422 0.5651464
-0.08882342 0.03750515 0.5654378
-0.08935495 0.03478107 0.5639228
-0.08819555 0.02893113 0.5621133
-0.08857684 0.03071426 0.5625185
-0.08711918 0.02944195 0.5629676
-0.0902038 0.03231852 0.5615709
-0.08784001 0.0337766 0.5643449
-0.08897711 0.03297319 0.5631598
-0.08509129 0.03629029 0.5663418
-0.08706716 0.03472067 0.565057
-0.08713899 0.03619066 0.5656149
-0.08557189 0.0330982 0.5649346
-0.08696156 0.03151241 0.5637175
-0.08240752 0.02917663 0.5673488
-0.08709566 0.02785376 0.5623452
-0.08753306 0.0236918 0.5585054
-0.0865576 0.02442129 0.5605433
-0.08619498 0.01299286 0.5635867
-0.08810779 0.01232867 0.5637377
-0.09060512 0.01100197 0.5650457
-0.08604523 0.008797331 0.5692794
-0.08760573 0.008929464 0.5685599
-0.1119557 0.0705618 0.5721639
-0.08569139 0.01422849 0.5616222
-0.09395 0.01331348 0.5623583
-0.09438916 0.0121476 0.5650311
-0.09654442 0.01361913 0.5633419
-0.09948295 0.0136689 0.5648556
-0.09003182 0.01014578 0.5666377
-0.09223101 0.01080085 0.5662542
-0.08926704 0.009294269 0.5680337
-0.08938473 0.008492268 0.5696533
-0.08992282 0.007126331 0.5731425
-0.08958656 0.007656851 0.5715249
-0.09115624 0.008458362 0.5708469
-0.1392984 0.06168859 0.5955546
-0.1371367 0.06541414 0.5925997
-0.1406521 0.06179392 0.5986378
-0.114134 0.06929246 0.5728468
-0.09496724 0.01094634 0.5683418
-0.09809526 0.004064861 0.5899428
-0.1033536 0.003621706 0.5913327
-0.09131041 0.007196372 0.5748578
-0.08896361 0.006747885 0.5743127
-0.09234347 0.007114937 0.5777686
-0.09505218 0.008061931 0.574993
-0.09366824 0.009113356 0.5713536
-0.09759773 0.01010677 0.5718621
-0.1022681 0.0111598 0.5714741
-0.1102322 0.01168723 0.5732153
-0.136629 0.01254776 0.5750017
-0.1130261 0.004935091 0.589358
-0.1159646 0.07021226 0.5742859
-0.1158398 0.07445832 0.576239
-0.1107284 0.07374974 0.5731146
-0.1129597 0.07408743 0.574424
-0.1133922 0.07641794 0.5755231
-0.08858672 0.06870761 0.578139
-0.1021234 0.08401375 0.5793147
-0.1059523 0.0749742 0.5727637
-0.1006415 0.07197984 0.5742486
-0.1005625 0.0757172 0.5759621
-0.1056602 0.0798352 0.5753407
-0.09889252 0.09246072 0.5720243
-0.09685824 0.09237438 0.5722131
-0.1067975 0.07832934 0.5736855
-0.08267879 0.04903911 0.5719717
-0.1047332 0.06665842 0.5695416
-0.09075303 0.05896344 0.5714383
-0.08819629 0.0536486 0.5704905
-0.0853423 0.05387234 0.5715904
-0.06352413 0.09234568 0.5708044
-0.0695636 0.09118163 0.57505
-0.07112747 0.09192804 0.572782
-0.06855309 0.09195717 0.5733676
-0.06678168 0.09222346 0.5729883
-0.08234926 0.04088571 0.5717009
-0.07621841 0.09259458 0.5714791
-0.08496781 0.09244248 0.5711045
-0.08699345 0.0927332 0.5703493
-0.08115863 0.09225961 0.5720131
-0.08306497 0.09239036 0.5716271
-0.0798106 0.09277873 0.5706123
-0.06160646 0.09192616 0.5705941
-0.06128169 0.09054685 0.5738194
-0.05173102 0.09221448 0.5702383
-0.05034704 0.09262349 0.5694094
-0.07377202 0.09131042 0.5739007
-0.07413351 0.09233486 0.5716027
-0.07575192 0.09177214 0.5729434
-0.04752799 0.09129676 0.5727904
-0.0873055 0.05725384 0.5725052
-0.08189148 0.03427355 0.5700015
-0.08212834 0.0358787 0.5703017
-0.08145718 0.03458207 0.5710726
-0.08138161 0.03545009 0.5721425
-0.07813343 0.02021142 0.5698367
-0.0876473 0.006623173 0.5757889
-0.08235959 0.00773816 0.5736194
-0.08311494 0.006729547 0.5745234
-0.08386901 0.001745295 0.5975443
-0.08199229 0.04325918 0.5748318
-0.08291962 0.04999875 0.5770775
-0.08132132 0.04352878 0.5767407
-0.08689923 0.07665158 0.5820017
-0.08933647 0.07881119 0.5822247
-0.07832642 0.005211213 0.5873122
-0.07722727 0.02435428 0.5747505
-0.07762082 0.02672684 0.5750458
-0.08180517 0.001182281 0.5976166
-0.08848214 0.06582235 0.5766907
-0.07833266 0.02634736 0.5730342
-0.07565749 0.09076934 0.574727
-0.07735474 0.09045245 0.5754964
-0.0649799 0.08861252 0.5799409
-0.06193902 0.08982541 0.5754254
-0.06482659 0.09063832 0.5754277
-0.08863739 0.0927209 0.5715141
-0.08218218 0.09150785 0.5750874
-0.0805421 0.09087765 0.5756729
-0.08450454 0.0920441 0.5729229
-0.0760747 0.08913768 0.5784765
-0.07577324 0.08985324 0.5765719
-0.09163674 0.09188578 0.5733652
-0.08931553 0.09225173 0.5730572
-0.08389565 0.09191126 0.5746294
-0.09011038 0.09165708 0.5747466
-0.08788792 0.09196812 0.5744754
-0.08861065 0.09066847 0.5775502
-0.08979101 0.09065524 0.5771294
-0.09431585 0.09094552 0.5760026
-0.09229857 0.09142926 0.5752572
-0.1021322 0.07946622 0.5770579
-0.1115406 0.08079267 0.576556
-0.1111575 0.07555472 0.5739927
-0.1109805 0.07742812 0.5747508
-0.1128269 0.07880951 0.5762798
-0.114001 0.08084203 0.5780092
-0.1039158 0.08328263 0.5779726
-0.1064332 0.0816016 0.575784
-0.118856 0.06147272 0.5710645
-0.117513 0.06008401 0.5694594
-0.1238736 0.09077116 0.5769385
-0.124809 0.09106921 0.579188
-0.1249138 0.08847743 0.5858997
-0.1180736 0.08343823 0.5814247
-0.1188794 0.0530422 0.5668651
-0.1304671 0.05242604 0.5726987
-0.132643 0.05134626 0.5736848
-0.1427663 0.02288279 0.5837112
-0.1435319 0.02184594 0.5855401
-0.1433079 0.02385851 0.5861479
-0.1292709 0.09094968 0.576975
-0.1264726 0.09094491 0.5772167
-0.1558733 0.09191422 0.5741822
-0.1652353 0.09297217 0.5744424
-0.1639482 0.09240185 0.5749443
-0.155553 0.09098775 0.5759616
-0.14172 0.01683614 0.5754917
-0.1413909 0.01585608 0.572861
-0.1298524 0.02583078 0.5585519
-0.1302744 0.0281865 0.5608714
-0.1441049 0.02362562 0.5883753
-0.1447297 0.02182816 0.5888482
-0.144879 0.0229219 0.5903687
-0.117618 0.05067627 0.565294
-0.1220918 0.05068503 0.5675969
-0.1226357 0.04230228 0.564869
-0.1172808 0.04496907 0.5628167
-0.120908 0.04022111 0.5627311
-0.1152213 0.0466072 0.5622852
-0.1261359 0.03253759 0.5604458
-0.127954 0.02777091 0.5581828
-0.122012 0.03687295 0.56067
-0.1251349 0.04797037 0.5683519
-0.1301827 0.04125899 0.5691302
-0.1339519 0.04419428 0.5731257
-0.1347236 0.03777199 0.5723853
-0.1362899 0.04491194 0.5766718
-0.1377986 0.04370131 0.5802274
-0.1367626 0.02540791 0.5706825
-0.1370509 0.02224062 0.5670052
-0.1359993 0.02527616 0.5660976
-0.1334463 0.02722167 0.5636632
-0.1383116 0.09072572 0.5748969
-0.13942 0.09163951 0.57288
-0.1342265 0.09119678 0.5742755
-0.1322427 0.0916052 0.5732918
-0.1353733 0.04745563 0.575256
-0.1371005 0.0466656 0.5787544
-0.1420928 0.01785577 0.57816
-0.1424689 0.01924748 0.5803571
-0.1418885 0.0195655 0.5785834
-0.1344748 0.05188473 0.5753879
-0.1412937 0.01411015 0.5728916
-0.1394896 0.01125883 0.5781486
-0.1571857 0.09117725 0.5754906
-0.1457305 0.008967717 0.5843917
-0.1454364 0.01023583 0.5855914
-0.1453779 0.01167812 0.5860351
-0.1447286 0.01699946 0.5861809
-0.1458758 0.008466547 0.5859728
-0.1455884 0.01044295 0.5870264
-0.1444202 0.01572061 0.5844182
-0.1439723 0.0117794 0.5794418
-0.1444691 0.01240058 0.5815352
-0.1439275 0.01359015 0.580424
-0.1453966 0.01221612 0.587355
-0.1397647 0.01033531 0.5824111
-0.1395372 0.01099004 0.5804653
-0.1449394 0.01122082 0.5825863
-0.1452703 0.01314828 0.5863453
-0.155673 0.08667993 0.5861622
-0.1578384 0.08637127 0.58614
-0.1331546 0.05936221 0.5776104
-0.1307929 0.05946357 0.576189
-0.1180617 0.07166218 0.5763339
-0.1199584 0.07455531 0.5787069
-0.141352 0.02116561 0.5778669
-0.1415639 0.02322433 0.5806192
-0.1193881 0.06891739 0.575688
-0.1312795 0.06048476 0.5775981
-0.1290696 0.06204799 0.5776573
-0.1275794 0.06109663 0.5757775
-0.1190466 0.06326748 0.572219
-0.1277296 0.06403938 0.5784003
-0.1312963 0.06207607 0.5798909
-0.1333649 0.06180056 0.5826527
-0.1338514 0.06023337 0.5810203
-0.1316981 0.06473333 0.5834333
-0.1414586 0.06220389 0.6008002
-0.1418413 0.06306373 0.6021972
-0.1235523 0.06666026 0.5769464
-0.1287759 0.069061 0.5829765
-0.127758 0.06637981 0.5800775
-0.1212187 0.08128545 0.5822706
-0.1189134 0.08105597 0.5808497
-0.120989 0.07836539 0.5809028
-0.1283704 0.08173624 0.5867884
-0.1283571 0.08435456 0.5868519
-0.1436049 0.02608383 0.5879698
-0.1239221 0.08026814 0.5834706
-0.1237147 0.08355501 0.5846694
-0.1384905 0.07135068 0.5993534
-0.138095 0.07008658 0.5975329
-0.1376042 0.07353668 0.5978075
-0.1373234 0.06833728 0.5947107
-0.1345929 0.07019566 0.5905482
-0.1364365 0.07591149 0.596001
-0.1304414 0.0722766 0.5863244
-0.1251814 0.07472965 0.5822148
-0.132049 0.07542503 0.5892752
-0.1119661 0.08521214 0.5789796
-0.1102867 0.08248172 0.5766422
-0.1126716 0.08406574 0.5787156
-0.1060773 0.08295424 0.5767546
-0.1011484 0.08186425 0.5785126
-0.1143994 0.08332784 0.5793667
-0.1164169 0.08175604 0.5797345
-0.121939 0.08316316 0.5836158
-0.09809496 0.07958751 0.578581
-0.1189466 0.05820234 0.5693929
-0.1229362 0.05660309 0.5707884
-0.1270446 0.0594181 0.5743002
-0.1230941 0.06140218 0.573411
-0.1055836 0.08618687 0.5790448
-0.1040139 0.08504185 0.5790587
-0.1307412 0.05778055 0.5752158
-0.1275062 0.05446271 0.5721728
-0.1270257 0.05725541 0.5731643
-0.131323 0.05402738 0.5737729
-0.1339966 0.05638783 0.576063
-0.1360947 0.05250628 0.5775351
-0.1381746 0.05109942 0.583856
-0.1370273 0.05307662 0.5804374
-0.1386027 0.04864211 0.5842084
-0.1417805 0.04568604 0.5930595
-0.1407361 0.04702409 0.5905564
-0.1426321 0.0457645 0.5952383
-0.139451 0.04895459 0.5873765
-0.1405042 0.0488484 0.5905375
-0.1406646 0.0500358 0.5914071
-0.1358487 0.05484246 0.5776275
-0.1377784 0.05367894 0.5836664
-0.1365741 0.05535533 0.5802956
-0.1355287 0.05691188 0.5778672
-0.1385233 0.05471791 0.5876447
-0.1368232 0.05633771 0.5827806
-0.1408541 0.01015939 0.5807984
-0.1429453 0.01135081 0.5780273
-0.1450702 0.01267858 0.5835701
-0.1366836 0.009912168 0.5853193
-0.1440839 0.01283451 0.5920101
-0.1449336 0.01424048 0.5901944
-0.1454613 0.008377492 0.5879114
-0.1409073 0.01072403 0.5787893
-0.1385142 0.01007728 0.5854118
-0.138695 0.01066716 0.5837001
-0.1377465 0.01109584 0.5827231
-0.1377906 0.01132638 0.5803638
-0.1375105 0.01073668 0.5841863
-0.1442533 0.02086525 0.5871132
-0.1425974 0.02106973 0.5819065
-0.1431964 0.01933626 0.5826678
-0.1450789 0.01841124 0.5888268
-0.1450219 0.01750585 0.5878423
-0.1449832 0.01998652 0.5889758
-0.1454183 0.006562641 0.5859016
-0.143849 0.01766681 0.5840371
-0.1437607 0.01995161 0.5850644
-0.1401016 0.02359251 0.5768741
-0.1367156 0.02923658 0.5739269
-0.1445909 0.02459462 0.589744
-0.1382621 0.008960011 0.5869579
-0.1376864 0.006879596 0.588845
-0.1400036 0.008075634 0.5880553
-0.1363754 0.01079002 0.5827385
-0.1257192 0.01314904 0.5741901
-0.1170517 0.008553994 0.581929
-0.1292492 0.01304799 0.5749229
-0.1332993 0.01277157 0.5752569
-0.1352037 0.01136191 0.5791855
-0.1439649 0.01026542 0.5917527
-0.142224 0.008018456 0.5957183
-0.143175 0.01074956 0.5938206
-0.1362642 0.008093047 0.5873231
-0.144663 0.02612873 0.5906062
-0.1312204 0.08319324 0.588468
-0.127919 0.08999893 0.5884097
-0.1277064 0.08838531 0.5876033
-0.1440639 0.08735844 0.5852581
-0.1445227 0.08687319 0.5871496
-0.1580967 0.08139745 0.597329
-0.1602143 0.08146513 0.5973516
-0.1467917 0.08734556 0.5855255
-0.1561206 0.08197177 0.5963522
-0.1548044 0.08635553 0.5874186
-0.148145 0.08375629 0.5958839
-0.1656873 0.08799465 0.5839039
-0.1639312 0.08774544 0.5845541
-0.1717253 0.08531552 0.5897352
-0.1701691 0.08599997 0.5887226
-0.1686161 0.0866428 0.5877325
-0.143444 0.01579582 0.5951258
-0.1429809 0.01369009 0.59641
-0.1425297 0.01502005 0.5972052
-0.144999 0.01102586 0.5885716
-0.1446858 0.009540576 0.5899615
-0.1423685 0.01131446 0.5961998
-0.1419634 0.01237162 0.5978327
-0.1448012 0.01304317 0.5886717
-0.1363925 0.009476518 0.6066309
-0.1384007 0.01159056 0.6038767
-0.1394318 0.01577554 0.6025574
-0.1410335 0.01367453 0.5994044
-0.1423585 0.02568628 0.6014069
-0.1437703 0.02691606 0.598621
-0.142583 0.02484467 0.5997083
-0.1776603 0.08165991 0.5996081
-0.1689104 0.08346839 0.5944425
-0.1440077 0.02824464 0.589897
-0.1405772 0.03018773 0.5825844
-0.1368319 0.03335289 0.5755634
-0.1438171 0.03058824 0.5906276
-0.1426606 0.02978247 0.5871746
