# .PCD v0.7 - Point Cloud Data file format
VERSION 0.7
FIELDS x y z
SIZE 4 4 4
TYPE F F F
COUNT 1 1 1
WIDTH 1291
HEIGHT 1
VIEWPOINT 0 0 0 1 0 0 0
POINTS 1291
DATA ascii
3.242341995 -2.401764631 10.81592369
3.234524488 -2.407911062 10.82065392
3.427401543 -2.336441994 10.68182468
3.419716597 -2.340951204 10.69328499
3.415426254 -2.354629517 10.69074345
3.419075489 -2.40655756 10.66202927
3.407427311 -2.346848249 10.70104218
3.411329031 -2.330897808 10.70648193
3.41762352 -2.37452364 10.67737961
3.412249804 -2.395687342 10.66534233
3.369453192 -2.233519077 10.7558279
3.40165329 -2.297832489 10.7304945
3.398782492 -2.31252265 10.72801685
3.409772396 -2.270037174 10.72233295
3.396253347 -2.257805586 10.73953438
3.397251368 -2.271286488 10.73655319
3.37539053 -2.395292044 10.66046333
3.383983612 -2.383829117 10.66974068
3.346167564 -2.29653573 10.75506496
3.364804268 -2.295453787 10.74753857
3.361415863 -2.323175907 10.7387352
3.345836878 -2.366555214 10.70697212
3.356393337 -2.37823987 10.68266678
3.331977844 -2.390687704 10.68068123
3.360850334 -2.188999891 10.73108196
3.192291975 -2.370661259 10.91343403
3.398430347 -2.327589989 10.72059917
3.313413858 -2.279051304 10.78005219
3.340032578 -2.256158113 10.75498581
3.337654352 -2.284101725 10.76346874
3.385879755 -2.301732779 10.73795414
3.583476067 -2.236410141 10.59084892
3.386146069 -2.321648598 10.7313652
3.108790636 -2.405247688 10.98945236
2.919165134 -2.4730196 11.07622051
2.939759731 -2.48831296 11.0675602
2.94513011 -2.462393761 11.06471825
3.170479059 -2.422446966 10.89862061
3.281996965 -2.325455189 10.81040001
3.218455553 -2.35059166 10.89499378
2.872545958 -2.524527073 11.10713577
2.909754753 -2.521728754 11.08517456
2.900111675 -2.52643919 11.08697414
2.863735199 -2.524550676 11.09473991
2.92184782 -2.520148039 11.05641937
3.19312191 -2.434769869 10.83733845
3.168216228 -2.455112457 10.8247757
3.27887249 -2.379837751 10.76882458
3.267565489 -2.383341789 10.78282928
3.274217844 -2.359027147 10.7948637
3.193146229 -2.352131844 10.91257954
3.192837 -2.333909273 10.90364265
2.737745047 -2.410758495 11.00602531
2.855119228 -2.339037895 10.90462017
2.633776188 -2.333379984 10.89470768
3.095871449 -2.355753183 10.93745708
3.133913517 -2.368443966 10.9405899
3.108380079 -2.328786135 10.89924908
3.039992332 -2.341418743 10.91474628
3.054916859 -2.410305977 10.99295712
3.0891397 -2.367274523 10.95598316
3.231257439 -2.231749296 10.75187016
3.263889313 -2.24684763 10.76473808
3.270211935 -2.232638121 10.74539757
3.22865653 -2.435708284 10.75696373
3.210458994 -2.43596077 10.73500824
3.203327656 -2.442085266 10.77218246
3.564240456 -2.209168911 10.60434914
3.593573809 -2.251313686 10.58408546
3.623572111 -2.258617163 10.55402374
3.619674921 -2.240586042 10.55569267
3.604350328 -2.200447798 10.58294773
3.613482714 -2.205902576 10.56632805
3.61156559 -2.194230318 10.57168198
3.145193815 -2.378944159 10.94145107
3.292719603 -2.338635921 10.78073025
3.277258396 -2.316138983 10.82132912
3.393763542 -2.238485336 10.74246693
3.381759644 -2.243536949 10.75049782
3.638982773 -2.123581171 10.55898476
3.635329962 -2.108198404 10.55917835
3.647965193 -2.113681078 10.54814243
3.253717184 -2.373419046 10.82376671
3.260567188 -2.375745535 10.80860329
3.249792576 -2.388950825 10.81674004
3.224694014 -2.428518534 10.79236984
3.229378223 -2.260748863 10.79550457
3.264725447 -2.293644428 10.82243919
3.285170794 -2.273535728 10.79080105
3.291392803 -2.29828763 10.80821419
3.158848047 -2.327385426 10.9000721
3.235384464 -2.283578157 10.83227253
3.112861156 -2.310307026 10.87720776
3.127684355 -2.290949106 10.85569954
3.255764484 -2.358483076 10.82731247
3.261384249 -2.36508441 10.81497192
3.189657211 -2.301171303 10.8700552
3.287536621 -2.41179347 10.71158981
3.217213631 -2.325068474 10.88743305
3.371721983 -2.314453602 10.73955154
3.148594141 -2.370187759 10.93387318
3.112328529 -2.365626574 10.94769382
3.081454754 -2.305965662 10.87075424
2.960446596 -2.517095566 11.03751564
2.765951872 -2.500828028 11.06470013
2.877919436 -2.481882572 11.08630085
2.794836521 -2.458800793 11.07283783
2.845499277 -2.481878757 11.09952641
3.096799374 -2.290590525 10.85338116
3.071662664 -2.438721418 10.99316692
3.060144901 -2.448948383 10.99353027
2.582938194 -2.430436134 10.90791416
2.886920452 -2.445602894 11.05504704
3.010953903 -2.298797131 10.85510445
2.542642117 -2.410254478 10.98003197
2.351900816 -2.425040483 10.98007107
2.967355013 -2.391628027 10.97793674
3.016628981 -2.432014942 11.00522995
2.66721034 -2.456105471 11.04646015
2.833153963 -2.522552252 11.10167122
3.056657076 -2.490261316 10.99387932
3.041298151 -2.497817516 11.00816917
3.045987606 -2.486849308 11.00618172
3.044271946 -2.459928751 11.00004292
2.80526185 -2.498115301 11.10919762
2.876110792 -2.497196198 11.0917902
3.044805527 -2.442877531 10.99668789
3.028171301 -2.446584702 11.00436878
3.194453955 -2.267314196 10.82019329
2.921673775 -2.494814634 11.06268311
2.934525728 -2.506294966 11.0649004
2.929866314 -2.520887852 11.07287693
2.953493595 -2.520023346 11.06236839
2.452591181 -2.366256714 10.93032074
2.355389833 -2.373012066 10.92900181
2.323049307 -2.408759832 10.97856712
2.332915068 -2.426749229 11.00438309
2.351149797 -2.396325111 10.9696846
2.468810558 -2.264908314 10.8030014
2.418891668 -2.419794798 10.98604393
3.290183783 -2.419615507 10.69358253
3.249649048 -2.429238319 10.7054987
2.863355637 -2.484527111 11.09723091
3.053904772 -2.476234674 10.99765778
2.376396179 -2.450900078 11.00221443
3.086997747 -2.412714958 10.73767662
2.363672972 -2.309792042 10.86037159
2.485032082 -2.216235399 10.74089432
2.955532789 -2.499117851 11.06644821
2.973932981 -2.518208504 11.05667686
3.299808741 -2.256821632 10.76634121
3.359267712 -2.221646309 10.7541647
3.394821644 -2.287167072 10.73684978
3.379101515 -2.280416727 10.7446394
3.021245718 -2.5079391 11.01384068
3.027849913 -2.497058153 11.02595043
3.004250765 -2.512825966 11.0498209
3.006602764 -2.515421152 11.03555202
2.989202499 -2.517924309 11.04508972
2.915118694 -2.51414752 11.07120228
2.915091038 -2.505215406 11.06012535
3.186900616 -2.445145607 10.82062626
3.047305107 -2.500423908 10.98245525
3.260786057 -2.425602198 10.73797131
3.216214657 -2.429014444 10.80797958
2.899104357 -2.504662991 11.07050991
2.906570435 -2.497384787 11.06258392
3.266810656 -2.365080357 10.80456352
3.26787281 -2.373174429 10.79452991
3.199687004 -2.441986561 10.80125332
3.213914156 -2.436810732 10.79046631
3.225022554 -2.433195591 10.77752399
3.174244404 -2.449682236 10.7916069
3.305188656 -2.35568881 10.75341034
3.268864632 -2.329973459 10.82081604
3.274343491 -2.415636063 10.73836994
3.376590967 -2.359917641 10.70136166
3.275036335 -2.408439398 10.74856377
3.626459837 -2.15999341 10.56335449
3.294788361 -2.354211092 10.76735592
3.305394888 -2.369456053 10.743577
3.321828604 -2.401283264 10.68075085
3.365124702 -2.385162354 10.66978645
3.34713459 -2.38748455 10.67404747
3.292296648 -2.235564709 10.74547863
3.321393967 -2.221166372 10.7388525
3.304038763 -2.22104311 10.73541737
3.141254425 -2.456110001 10.80495262
1.446799755 0.3399215937 8.771543503
3.362098217 -2.279619455 10.75082397
3.279629469 -2.302023649 10.81909466
3.288448095 -2.31300807 10.81103992
3.330976725 -2.206829309 10.73551941
3.372713327 -2.329693556 10.73218536
3.642338276 -2.096646547 10.54988194
2.822446585 -2.285788059 10.83519459
3.252576113 -2.209518194 10.73036003
3.074026108 -2.2745049 10.83253479
3.555068731 -2.312876463 10.58619118
3.540630817 -2.291938305 10.59895515
3.312711 -2.291538477 10.78484535
3.354290009 -2.346454144 10.72454548
3.356489182 -2.178877592 10.71658897
3.343566418 -2.185547829 10.7233181
3.310884237 -2.197679996 10.72599697
3.372901201 -2.220851898 10.75674915
3.347624779 -2.196151257 10.73514462
3.330291748 -2.192611933 10.72637272
3.321576834 -2.313826084 10.75718498
3.389321327 -2.212717295 10.74298954
3.327336311 -2.183716297 10.71821213
3.628088236 -2.188777685 10.54974461
3.618646383 -2.193458557 10.56122684
3.374147892 -2.194027901 10.73672676
3.384480715 -2.226865768 10.75071144
3.384747505 -2.336297512 10.72292233
3.323890686 -2.304555416 10.76296043
3.496623278 -2.410879374 10.59152222
3.511451006 -2.407525778 10.59076405
3.524008751 -2.305763483 10.60312366
3.39476943 -2.395193577 10.66252041
3.500976086 -2.405351877 10.59492111
3.48980689 -2.401777744 10.60352898
3.595975876 -2.183533192 10.59470558
3.592403889 -2.165277004 10.59701538
3.595234871 -2.214223385 10.58831501
3.58657527 -2.223278522 10.59145069
3.607412338 -2.218494415 10.57505989
3.540748835 -2.384563446 10.59059334
3.553293705 -2.344781399 10.58716393
3.544646978 -2.354490757 10.59136391
3.539971828 -2.338807583 10.58823299
3.603327036 -2.316446066 10.56938744
3.578761339 -2.328642368 10.57958889
4.049974442 -1.794063568 10.10234165
3.573107004 -2.223714828 10.59672928
3.538161516 -2.263467789 10.60962296
3.566777945 -2.400129318 10.56851673
3.577132702 -2.400298834 10.55570984
3.51596117 -2.412860155 10.58166218
3.589721918 -2.359708786 10.56861305
3.615096092 -2.286898613 10.56526184
3.59809947 -2.232129097 10.58286095
3.581376553 -2.211622 10.59711361
3.662312269 -2.085904121 10.53056812
3.669788361 -2.110384941 10.52671814
3.577292204 -2.200542212 10.60416126
3.607695103 -2.184513569 10.57957077
3.59021616 -2.200048923 10.596591
3.632998466 -2.197877407 10.53915405
3.613777399 -2.252190113 10.56651115
3.598046541 -2.15486908 10.58653831
3.58373332 -2.136299133 10.59320736
3.617865562 -2.131156921 10.57668114
3.630460262 -2.117118597 10.56693077
3.622721195 -2.107115269 10.56828213
3.583095074 -2.124340296 10.58930016
3.577172756 -2.114391327 10.58851433
3.576731205 -2.099229336 10.58068657
3.524300337 -2.410310507 10.58535862
3.542619944 -2.22308898 10.60802364
3.956681252 -1.922691107 10.23274803
3.943789482 -1.934615731 10.24932575
3.582403421 -2.188817263 10.60652733
3.45386529 -2.131099463 10.62026405
3.548310518 -2.213368893 10.60762787
3.55427599 -2.395516872 10.57819271
3.55018115 -2.406058073 10.56744099
3.622141838 -2.143164873 10.57241821
3.603915691 -2.379993677 10.53165817
3.970914841 -1.904076576 10.26558113
3.970725536 -1.908722401 10.23348713
3.958625078 -1.920641661 10.24874783
3.564223766 -2.109144688 10.59112072
3.556838036 -2.094001532 10.58279896
3.473562717 -2.317859888 10.62458801
1.332020044 0.5166476965 8.751018524
3.614854336 -2.185158253 10.56900501
3.633936405 -2.172106504 10.54972172
3.640954018 -2.153793573 10.54872894
3.538254976 -2.09393096 10.58616543
3.463448048 -2.112662315 10.60479736
3.536151409 -2.053339005 10.53823566
3.622232437 -2.204368114 10.55130959
3.525046587 -2.338325977 10.59479713
3.52298975 -2.351608992 10.60204411
3.641084909 -2.071677446 10.54055119
3.624389887 -2.093176365 10.55978966
3.532555103 -2.350287914 10.59408951
3.516840219 -2.397612333 10.56654167
3.537839651 -2.403940201 10.58226204
3.523219824 -2.396388531 10.59345436
3.513097525 -2.386785746 10.6017952
3.534531832 -2.303294659 10.59641647
3.529678345 -2.412183046 10.57604504
3.629580975 -2.33074069 10.54333782
3.646904945 -2.281200171 10.53083134
3.623866081 -2.290845394 10.55416203
3.604797602 -2.24655056 10.57607555
2.571709633 -2.233875036 10.76132011
2.952684879 -1.982927561 10.43605614
2.606389761 -2.138749361 10.63242054
3.620213032 -2.119360447 10.57384872
3.627795935 -2.215024471 10.54077053
3.610484362 -2.065010071 10.54447365
3.62684989 -2.242729187 10.54436207
3.634558916 -2.252229214 10.53925896
3.622985363 -2.17913866 10.56093597
3.624227762 -2.230360031 10.54459
3.638742447 -2.182396889 10.53916359
3.642156124 -2.204179287 10.53039455
3.603310108 -2.35789609 10.50238228
4.047292233 -1.847694874 10.12932301
4.065942287 -1.831246495 10.10287189
3.674200058 -2.21595645 10.50948906
3.706555605 -2.062925577 10.495471
3.718887806 -2.053711414 10.48765182
3.646356344 -2.351300716 10.52002621
3.671541691 -2.287997723 10.5028944
3.687397003 -2.089737892 10.5087328
3.702749729 -2.093178749 10.49831772
3.690327644 -2.108420849 10.50840282
3.645764351 -2.16635251 10.53811073
3.695920944 -2.075740099 10.50134945
3.679538965 -2.073362589 10.51116085
3.637928009 -2.051217794 10.52349472
3.649276972 -2.063477278 10.52986431
3.664787769 -2.057099581 10.51502037
3.654351473 -2.075074673 10.53390312
3.674779892 -2.154258013 10.51721764
3.718964338 -2.067482233 10.48941326
3.635308504 -2.140557766 10.56039524
3.648690462 -2.133627892 10.54584312
3.628941298 -2.129021406 10.56954956
3.659748793 -2.119873285 10.53620338
3.660196781 -2.134538889 10.53355885
3.708804607 -2.076221466 10.49488354
3.92970252 -1.935614586 10.29589272
3.946554661 -1.927794456 10.28049374
3.943426371 -1.921292663 10.29327774
3.703973055 -2.048013687 10.49255371
3.716736794 -2.082849503 10.48922253
3.994463205 -1.888922453 10.21748829
4.001130581 -1.882891059 10.22554588
3.712110996 -2.129991531 10.48708725
3.71446991 -2.101783991 10.48857784
3.664553881 -2.073095322 10.52321053
3.749602556 -2.042708158 10.45719242
3.72392869 -2.087532997 10.48188496
3.688687801 -2.05939126 10.50274372
4.032283306 -1.824663758 10.16852474
4.044840336 -1.851352572 10.15556145
4.028982162 -1.860993981 10.14486694
4.028847218 -1.862697005 10.12868214
4.018335819 -1.869099736 10.16603088
4.00519228 -1.878893495 10.18769646
3.996604443 -1.886005163 10.17553139
4.063203812 -1.835416794 10.16021442
3.992661953 -1.888839602 10.20414734
4.007718563 -1.879004955 10.20556736
4.051261425 -1.843964219 10.10861683
3.966935635 -1.893538356 10.26915073
3.9576509 -1.912206292 10.28035545
3.933231354 -1.94024682 10.27714252
3.981641054 -1.898363352 10.21859074
3.989227772 -1.890874386 10.19204712
3.968898773 -1.910111666 10.22002983
3.876010895 -1.964258313 10.37035275
4.061703682 -1.819508195 10.1502943
4.062332153 -1.82886076 10.16999245
4.062954426 -1.835145473 10.11560345
4.061798096 -1.824712515 10.09062862
4.060776711 -1.797473192 10.08163261
3.906757116 -1.964377046 10.27158165
4.017045021 -1.855888009 10.21167374
3.883723974 -1.964186907 10.35117912
3.898305178 -1.959255338 10.30821037
3.901458979 -1.930712104 10.32495785
3.84174943 -1.998590708 10.37966919
3.885068655 -1.97358191 10.30750465
3.905521154 -1.955808878 10.2959404
3.855556965 -1.976950169 10.39031696
3.855453253 -2.020958662 10.293293
3.827284336 -1.965720534 10.39747906
3.92651248 -1.921858549 10.3049469
3.94351244 -1.905599952 10.28820229
3.814090252 -2.011936188 10.40292168
3.829306364 -2.003371477 10.39132786
3.827115297 -1.996595025 10.40569496
3.757469893 -2.017463446 10.45705509
3.794095516 -2.007125378 10.4311285
3.871858835 -1.985952973 10.32278633
1.399726152 0.4259029329 8.75876236
3.833238363 -1.986172795 10.4075861
3.917900085 -1.948662519 10.28819275
3.81263566 -2.001229763 10.41681957
3.802474022 -2.013343334 10.41632748
3.912289858 -1.947574496 10.30380917
3.732189417 -1.996273637 10.45239067
1.615980625 0.3152588308 8.699336052
3.728876114 -2.059598446 10.4810524
3.817339182 -2.039664268 10.37034988
3.784567833 -2.090922117 10.37806606
3.813684464 -2.060113668 10.3456459
3.721511364 -2.1726017 10.45557213
3.742032766 -2.103494167 10.46000957
3.793196201 -2.04906559 10.40564442
3.817983627 -2.018624067 10.38810539
3.851829529 -1.996383905 10.36595345
3.82269907 -1.990873098 10.41546726
3.776571035 -2.040503263 10.43150234
3.858716488 -1.996099949 10.35011864
3.861647844 -1.996070504 10.33541012
3.843409061 -2.012012482 10.35549736
3.763283968 -2.111126184 10.40544987
3.797334433 -2.056007147 10.39296913
3.757055759 -2.07249999 10.44712448
3.770221472 -2.08471179 10.4275322
3.873443842 -1.981353521 10.34165859
3.856091738 -2.006393194 10.32474709
1.406431437 0.5340695977 8.713496208
1.273508191 0.5911234617 8.738600731
1.291346669 0.5852063894 8.740721703
1.705479622 0.2571831644 8.626908302
1.688742518 0.361104846 8.648851395
1.648640275 0.2921382189 8.680152893
1.300873756 0.4957327247 8.773957253
1.342773199 0.5070443153 8.752187729
1.340110302 0.4921487868 8.760572433
1.298722982 0.5067836642 8.766414642
1.248679638 0.5562252998 8.765741348
1.35639739 0.497608602 8.750447273
1.611834049 0.5128632784 8.630838394
1.286059737 0.513507545 8.766589165
1.288804054 0.5016839504 8.773406982
1.277062774 0.5069515109 8.774909973
1.291175485 0.4915591478 8.781494141
1.281391263 0.4976510108 8.780233383
1.490393043 0.4001048505 8.724272728
1.271342754 0.4993416071 8.784129143
1.474290371 0.454529345 8.708800316
1.353999257 0.5100963712 8.746384621
1.280875444 0.5571559072 8.755803108
1.470287085 0.6343228817 8.627388954
1.474845052 0.6233263612 8.629585266
1.481913924 0.5317006707 8.67647934
1.47389245 0.4311674535 8.718018532
1.453839779 0.4415023029 8.723706245
1.36254704 0.5355668664 8.72497654
1.313370585 0.5534415245 8.741098404
1.314130545 0.5688515902 8.735198975
1.573182106 0.4346158206 8.670033455
1.572540402 0.3898137212 8.689037323
1.611486673 0.406399101 8.66562748
1.511292338 0.5034507513 8.67527771
1.50655818 0.4646436274 8.689932823
1.462051988 0.5275957584 8.681097031
1.448899388 0.5127048492 8.694406509
1.412440181 0.5556204319 8.696398735
1.428633571 0.5469406843 8.691144943
1.416749239 0.5409583449 8.703578949
0.4978643358 0.3691543043 8.574007034
0.4866406322 0.3753426969 8.59510994
0.5005350709 0.3809373081 8.58698082
1.402281642 0.5479309559 8.707186699
0.4859540164 0.2933564186 8.494710922
0.500487268 0.2992318273 8.492880821
0.5365297198 0.2963343859 8.493099213
1.638712883 0.4999926686 8.624639511
1.625831127 0.5209133625 8.617484093
1.646528363 0.5009762645 8.615714073
1.644512773 0.5199820995 8.59853363
1.430497646 0.5725331903 8.672431946
1.496572256 0.4368773997 8.705109596
1.569988966 0.4745966196 8.656351089
1.555918336 0.4838327169 8.658630371
1.556460738 0.4669764042 8.664386749
1.643745542 0.353752017 8.675486565
1.658567429 0.3839336932 8.65748024
1.070231318 -0.4029265642 8.405635834
1.045951366 -0.4106033444 8.426321983
1.051576495 -0.403119415 8.394668579
1.573589683 0.2211672217 8.733521461
1.663725376 0.3282970488 8.6701231
1.600358009 0.3478691876 8.697294235
1.636597991 0.3759967387 8.670055389
2.403079033 -0.4254852831 8.658631325
1.219214201 0.001722977497 8.51270771
1.569491625 0.1031252965 8.546607018
1.599368215 0.3617178798 8.69035244
1.611404419 0.3686687648 8.682574272
1.566997051 0.3468404412 8.712296486
1.646958709 0.4053820074 8.650699615
1.494701147 0.5330640674 8.672786713
1.537554622 0.3783460557 8.711302757
1.542099476 0.4774045944 8.667216301
1.604248881 0.4554895163 8.650113106
1.556325197 0.4988263249 8.653269768
1.645589948 0.4536859989 8.628865242
1.661986232 0.4310076237 8.629211426
1.679207563 0.4034587443 8.636727333
1.606847286 0.5480234027 8.613075256
1.533719063 0.4259079099 8.692376137
1.500674963 0.5444951653 8.663302422
1.519532681 0.5195185542 8.666557312
1.530977011 0.5438549519 8.650915146
1.451542974 0.5536720157 8.673356056
1.459723234 0.5632081628 8.662384033
1.321492553 0.7102039456 8.662418365
1.416118264 0.5780606866 8.676649094
1.457012892 0.5392389894 8.677862167
1.449379206 0.5271879435 8.686342239
1.443588138 0.5431804061 8.682928085
1.42210269 0.5638485551 8.684308052
1.43739152 0.5338272452 8.690580368
1.390387774 0.5391592979 8.715289116
1.397528648 0.5611706972 8.700629234
1.475656867 0.5587826371 8.659264565
1.437325239 0.5582777858 8.678985596
1.444723487 0.5676011443 8.666934967
1.368784189 0.6040145755 8.689378738
1.452634454 0.5774158239 8.655292511
1.375998139 0.537273407 8.719551086
1.437540054 0.5819430947 8.661008835
1.423702598 0.585888803 8.666278839
1.369077086 0.5692328811 8.700661659
1.384239197 0.5929617882 8.685088158
1.356815338 0.5583033562 8.706267357
1.342417121 0.5618062019 8.705777168
1.351711273 0.5745152235 8.700720787
0.9152600765 0.3165259659 8.506869316
0.934405148 0.3162805438 8.504297256
0.5786637664 0.06244480982 8.464633942
1.353557348 0.5954770446 8.700127602
1.337053061 0.5719945431 8.704767227
0.9097456336 0.4789898992 8.660022736
0.9304712415 0.4804480672 8.656178474
1.331918955 0.5641155839 8.713953018
0.9287964702 0.3298930824 8.516558647
1.296412826 0.546618104 8.750713348
0.8992587328 0.4683992267 8.651021004
0.9182192683 0.4696353078 8.64735508
1.264321685 0.5595164895 8.76043129
1.228214622 0.6417565942 8.724707603
1.216474295 0.6442294121 8.734634399
1.219601631 0.6524897814 8.729992867
0.6938604116 0.5926423669 8.773424149
1.274442434 0.5745418668 8.751357079
1.3056252 0.5800353885 8.737658501
1.314397216 0.5354605913 8.746071815
1.275449276 0.6671357751 8.702370644
1.302745581 0.6629166603 8.69413662
1.329740763 0.5425944328 8.73565197
1.344548345 0.5190398097 8.745667458
1.21873951 0.6250933409 8.745738983
1.542933583 0.565746963 8.63051033
1.357478857 0.6111072302 8.693778992
1.40465498 0.5960603952 8.666893959
1.401209235 0.5865468383 8.677728653
1.142588377 0.6758936644 8.766345978
1.191061258 0.6878047585 8.738160133
1.209409714 0.6545469165 8.740659714
1.270082355 0.6053797007 8.724702835
1.288000941 0.5990331769 8.72867775
1.284636259 0.653439343 8.702198029
1.326690555 0.6071902514 8.707868576
1.285382748 0.6102931499 8.718427658
1.326675892 0.6511788964 8.687013626
1.368535757 0.5858063698 8.695987701
1.34628737 0.6095407009 8.700468063
1.339176893 0.6187922359 8.697370529
1.335598111 0.6106289029 8.703816414
1.362581253 0.6385234594 8.671726227
1.351305604 0.6355294585 8.679444313
1.412243009 0.588852644 8.669537544
1.415452003 0.5991389155 8.660856247
1.413358331 0.6498956084 8.637652397
1.425005555 0.6198217869 8.650144577
1.437420845 0.6240580678 8.643016815
1.432024717 0.6402621865 8.637579918
1.447500348 0.6371912956 8.63275528
1.495168805 0.6087347269 8.623464584
1.480808496 0.6097813249 8.629691124
1.488381982 0.6216754317 8.624808311
1.488829494 0.5963695645 8.629563332
1.500851154 0.5851708651 8.630900383
1.469326138 0.5726183057 8.651068687
1.456862688 0.603202045 8.640892982
1.51263392 0.6514312625 8.595846176
1.502484322 0.6332042813 8.610516548
1.262081265 0.6304168701 8.71206665
1.219589949 0.6347509027 8.736010551
1.31329155 0.6509280205 8.693549156
1.287237406 0.6730206609 8.696557999
1.300393462 0.6839687228 8.686610222
1.310011744 0.7132361531 8.669877052
1.258332491 0.5954782963 8.734749794
1.378086686 0.7102603912 8.620762825
1.364164352 0.6732305288 8.648571968
1.353790045 0.6810180545 8.65327549
1.358268023 0.6653742194 8.660241127
1.334120035 0.6858913898 8.672865868
1.281484485 0.7077012658 8.690065384
1.227552652 0.6725655794 8.722352982
1.216687799 0.677413702 8.731783867
1.317005515 0.6618030667 8.69028759
1.372406602 0.6618703008 8.651125908
1.387195468 0.6605445147 8.641419411
1.423528075 0.6077444553 8.654967308
1.403135657 0.6082069874 8.660916328
1.413731456 0.6149592996 8.655000687
1.327912807 0.6982164979 8.666514397
1.367461205 0.6496216059 8.662333488
1.341716886 0.6911033988 8.6599226
1.34602654 0.6770738363 8.666190147
1.29622364 0.7153357863 8.679017067
1.315539718 0.6747494936 8.687074661
1.326100469 0.7176480293 8.654829025
1.318133116 0.6899577379 8.678219795
1.337092519 0.6729775071 8.67738533
1.327275157 0.6792777181 8.681815147
1.326995134 0.6673607826 8.685023308
1.281668305 0.7252224088 8.683135033
1.190231204 0.6991928816 8.730335236
1.213063836 0.6877422929 8.730140686
1.221673846 0.7168210149 8.704555511
1.240445852 0.6984782815 8.704198837
1.256391644 0.7013793588 8.699554443
1.222999215 0.686118722 8.722325325
1.207719445 0.6699935794 8.740423203
1.25437212 0.6050246358 8.726743698
1.218505025 0.6642330289 8.731430054
1.155010223 0.7164114714 8.732498169
1.165243626 0.6242789626 8.781659126
1.211221814 0.7172020078 8.710995674
1.240177989 0.6658120751 8.713334084
1.236978889 0.6519317031 8.715835571
1.228092074 0.6580999494 8.722213745
1.253923059 0.6647930741 8.708464622
1.26514864 0.6559657454 8.706516266
1.249065876 0.6534798741 8.710748672
1.250900507 0.6766880751 8.707026482
1.248999834 0.6888318658 8.703950882
1.263922095 0.6719474196 8.704720497
1.237040639 0.6835713983 8.712080002
1.228821397 0.6252804995 8.73278904
1.227399468 0.6969239116 8.712648392
1.251493454 0.631741643 8.714502335
1.256890297 0.641836524 8.710291862
1.168917298 0.6480099559 8.770053864
1.256189704 0.6186447144 8.719055176
1.243257523 0.6412222981 8.714963913
1.228017449 0.6116877198 8.743911743
1.241542101 0.6118676066 8.730313301
0.8738206029 0.4441922903 8.630831718
0.877333045 0.4547320902 8.641566277
0.8554292917 0.4549792111 8.652978897
0.8868609071 0.477875948 8.666248322
1.220995903 0.5781353116 8.767386436
1.21359849 0.5911823511 8.767540932
1.239526272 0.5836751461 8.753950119
1.212967753 0.6022258997 8.765043259
0.9394305944 0.5397537947 8.719165802
0.9659391046 0.5891904831 8.761452675
0.9586846828 0.5953410864 8.767507553
0.9646847248 0.6051236987 8.77682209
0.9272813797 0.5069028735 8.680533409
0.9152342081 0.4998462796 8.676348686
0.7399302721 0.5855503082 8.761051178
0.6914079785 0.5817546844 8.763809204
0.6696891785 0.5823415518 8.763016701
0.6811621189 0.5872402191 8.769146919
0.7069230676 0.5833610892 8.762974739
0.9535039067 0.5651326776 8.738850594
0.6822750568 0.5632667542 8.746873856
0.7111733556 0.5661069155 8.749117851
0.7242259383 0.5365046263 8.726792336
0.7255756259 0.5451002717 8.735474586
0.7361374497 0.5425333977 8.730823517
0.7200646996 0.5537536144 8.741640091
0.6965249777 0.558159411 8.741868019
0.7083050609 0.5533854365 8.739783287
0.9375026822 0.562816143 8.743662834
0.6341149807 0.5613185763 8.746101379
0.7506542206 0.5789837837 8.755122185
0.6773091555 0.529633522 8.720204353
0.6009004712 0.5675049424 8.7427845
0.9221519232 0.5299250484 8.711986542
0.9400424957 0.5514976978 8.732514381
0.8673935533 0.5629485846 8.748483658
0.9029366374 0.5424317122 8.735309601
0.7830367684 0.6199846268 8.785588264
0.5618797541 0.5327783823 8.710276604
0.7435738444 0.5615874529 8.743350029
0.7577135563 0.558836937 8.738633156
0.953001678 0.5265927911 8.700296402
0.9547126293 0.5373795629 8.711096764
0.9073897004 0.4601325095 8.638295174
1.149789929 0.6922110319 8.751961708
0.9716361761 0.5956673026 8.77145195
0.9779841304 0.6037584543 8.782641411
0.5607650876 0.5627025962 8.741954803
0.5205084682 0.5201684833 8.758476257
0.6456999779 0.5845507383 8.759892464
0.5994406343 0.5892672539 8.763003349
0.6102023721 0.5799054503 8.752592087
0.5292359591 0.5591418147 8.745337486
0.5515947342 0.6007178426 8.777690887
0.6236156821 0.5736607909 8.750015259
0.6603246331 0.5272493958 8.718816757
0.5211697817 0.5290865898 8.746033669
0.5168375969 0.5329151154 8.757097244
0.6590869427 0.5647195578 8.750384331
0.668671608 0.5566858649 8.742870331
0.5414537191 0.5924278498 8.770253181
0.5201099515 0.5784181952 8.766665459
0.5922520161 0.5799135566 8.753368378
0.6581242085 0.5767896771 8.757677078
0.6470265985 0.5693488717 8.752427101
0.5309097767 0.5830084682 8.761719704
0.7492131591 0.5406125784 8.725007057
0.7511129379 0.5305508375 8.714892387
0.4886258245 0.5582538843 8.792076111
0.5158436298 0.3872627616 8.586582184
0.4842942357 0.3791573942 8.61092186
0.6520087123 0.5533413291 8.742567062
0.5645444989 0.55059129 8.731443405
0.6698072553 0.5696516633 8.753398895
0.6813636422 0.5757318735 8.758392334
0.5316650271 0.5019548535 8.740290642
0.5318135619 0.489847362 8.753658295
0.5044049025 0.5458577275 8.775611877
0.6944482923 0.5318043232 8.72185421
0.5454487801 0.5513784289 8.734949112
0.5348579884 0.5243278146 8.715688705
0.54663378 0.5303313136 8.711115837
0.5551328063 0.5233721137 8.698803902
0.5411839485 0.5188117027 8.702493668
0.5650641918 0.5157405138 8.6875
0.5715107322 0.5258068442 8.700134277
0.5282359123 0.5397050381 8.73572731
0.8552373052 0.504597187 8.699438095
0.5375620127 0.5060318708 8.698081017
0.5350338221 0.5106557608 8.712189674
0.6259145141 0.549156189 8.736608505
0.5233411789 0.4995443523 8.774424553
0.5912911296 0.5566887259 8.736144066
0.5283458829 0.4922712147 8.766673088
0.513917625 0.5669952631 8.765647888
0.617282927 0.5637718439 8.743462563
0.5353190303 0.4991573691 8.70946312
0.7145920396 0.5439657569 8.733855247
0.7009777427 0.5447241068 8.732275009
0.5300354958 0.5284664631 8.72659111
0.5386984348 0.5366661549 8.723245621
0.5258444548 0.5251873732 8.73552227
0.5805155039 0.5483343005 8.728992462
0.5845240951 0.5385539532 8.718359947
0.5542554259 0.5405893922 8.721957207
0.5379443169 0.491545707 8.69995594
0.5701243877 0.5405451059 8.72073555
0.5259352922 0.5156078935 8.744315147
0.5357462168 0.4870897233 8.717409134
0.53358531 0.5000505447 8.723156929
0.6086055636 0.5511972904 8.734009743
0.6075717211 0.5402047634 8.723493576
1.352540255 0.7221421003 8.633115768
1.364510655 0.7176017165 8.625747681
0.9653061628 0.5130004883 8.685445786
0.9610715508 0.5055446625 8.675721169
0.5368064046 0.4839224815 8.68636322
0.8377911448 0.5490843654 8.730246544
0.6835482717 0.5471740961 8.73315239
0.5985228419 0.5351189375 8.715319633
0.5863729715 0.529281497 8.706326485
0.5345375538 0.4874693453 8.736176491
0.5214520693 0.4554126561 8.728033066
0.5954812765 0.5447068214 8.726588249
0.9140691757 0.5116698742 8.687759399
0.9218298793 0.5404042006 8.729266167
0.9009128809 0.5290951133 8.717658043
0.7062041759 0.5208797455 8.712948799
0.7603687048 0.5483706594 8.729708672
0.9395088553 0.5208948255 8.694059372
0.8912267089 0.4591443837 8.640890121
0.7627203465 0.5386782289 8.720743179
0.776634872 0.53750211 8.719089508
0.7102726102 0.5332842469 8.724030495
0.7816171646 0.5247018933 8.708572388
0.9285325408 0.4983152449 8.672810555
0.8845449686 0.5359637141 8.727182388
0.7335224152 0.5524238348 8.739802361
0.7690778971 0.4874027371 8.679148674
0.952718854 0.5171909332 8.689983368
0.7469790578 0.5505697131 8.734853745
0.9134163857 0.5772892833 8.761118889
0.8661675453 0.4759281874 8.674702644
0.858330369 0.5403750539 8.724238396
0.9589557648 0.5512268543 8.72580719
0.9387795925 0.5297538042 8.705341339
0.5749182105 0.5334579945 8.711090088
1.008125424 0.5186006427 8.724814415
0.9287756681 0.515155077 8.688573837
0.878580153 0.523720324 8.712611198
0.9516923428 0.5083088279 8.680360794
0.9078432918 0.5205549002 8.701256752
0.9034436941 0.4899410307 8.671260834
0.8897143602 0.4922692478 8.677453041
0.9248355031 0.5218685865 8.697838783
0.8588024974 0.5199030042 8.708765984
0.9669213891 0.5228554606 8.696855545
0.851131916 0.4784353375 8.680830002
0.8502175212 0.4913361371 8.690703392
0.8758895397 0.4882489443 8.680738449
0.8622538447 0.485239327 8.684614182
0.9656533599 0.5322473049 8.705499649
0.6081659198 0.5117401481 8.6921978
0.8984099627 0.5116313696 8.691579819
0.8282668591 0.5200510025 8.70571804
0.9540316463 0.4693995714 8.642914772
0.8289669156 0.4667072594 8.667259216
0.921115756 0.4897057712 8.666999817
0.9412115216 0.492464304 8.666646957
0.8423213959 0.501101017 8.696826935
0.8361098766 0.4945949912 8.691296577
0.689422071 0.5147867203 8.708919525
0.9816390276 0.3256402314 8.552824974
1.048287034 -0.5949780941 8.508236885
0.7539208531 0.5194353461 8.705408096
0.845564723 0.5385097265 8.720134735
0.8546252251 0.5314850807 8.715723991
0.8388423324 0.4742854834 8.676068306
0.8228185773 0.4927870333 8.686359406
0.8374896646 0.4846551716 8.684062958
0.8253168464 0.479496628 8.676903725
0.5227743387 0.4572176039 8.653445244
0.812253654 0.4855747819 8.678842545
0.5477927327 0.5116274953 8.687361717
1.382426739 0.6936364174 8.622429848
1.401126027 0.6860353947 8.621304512
1.38574636 0.6774559021 8.629552841
0.5176438689 0.3403120935 8.530128479
0.5171239972 0.3300445974 8.516097069
0.5546893477 0.4536338449 8.63231945
0.5895467401 0.4467651546 8.636035919
0.5536487699 0.4680833519 8.639330864
0.8496885896 0.465978682 8.667983055
0.8428440094 0.5263474584 8.711241722
0.8424087167 0.5126076341 8.703136444
0.525378108 0.4628756046 8.682484627
0.4945593774 0.4234456718 8.693104744
0.5195525289 0.4493497908 8.644877434
0.8682926297 0.3620186746 8.558577538
0.8285553455 0.5054033995 8.696436882
0.5389020443 0.4988182485 8.684608459
0.5301335454 0.4701149166 8.653728485
0.5483099818 0.5012300014 8.673897743
0.5535885692 0.4814362526 8.649703026
0.5390185714 0.4832444489 8.656395912
0.8152931929 0.5135981441 8.69976902
0.8037541509 0.5077313781 8.694746017
0.5138952732 0.3584318161 8.553022385
0.7370035052 0.5327293873 8.719974518
1.000699759 0.4342971742 8.663706779
0.4851266146 0.3319585621 8.534148216
0.7407668829 0.2869445682 8.497494698
0.9313825965 -0.6121787429 8.549681664
0.439878583 0.3276137412 8.572865486
0.5039725304 0.4059894979 8.610386848
0.508225441 0.3952392638 8.597146034
1.004549265 -0.2489809245 8.340011597
0.9785528183 0.4109151959 8.632898331
0.9729751348 0.3860172927 8.597934723
1.418201089 0.6869966984 8.618470192
1.412275553 0.7033166289 8.615107536
0.8269660473 0.1678117812 8.407295227
0.9276677966 0.4010844827 8.588224411
0.9207231402 0.387996912 8.578217506
0.6227184534 0.3994302452 8.600605965
0.5792341828 0.3663154542 8.566619873
0.9134035707 -0.04891683906 8.280822754
0.8844037056 0.2888331413 8.48313427
0.8154341578 0.2534546256 8.461391449
1.139290333 -0.2559718192 8.31938076
1.078640699 -0.2508229613 8.30224514
0.9246833324 0.2927703559 8.482807159
0.5733407736 0.2589321733 8.481694221
1.626331449 0.5847733617 8.580866814
1.652552485 0.5869524479 8.569943428
1.65115273 0.5612303615 8.577579498
1.035185337 0.2715909481 8.552552223
1.531654239 0.6666831374 8.584623337
0.9082897902 0.3420543373 8.537964821
0.9117032886 0.3260777891 8.518148422
0.4096214473 0.2211645693 8.50036335
0.9446204901 0.3615198433 8.552081108
1.0808779 -0.4971458018 8.455916405
1.09290123 -0.4860801995 8.465768814
0.4680730402 0.1945783645 8.478133202
0.449829489 0.1777067333 8.483323097
0.4396420121 0.201451838 8.483633041
0.8288394809 -0.3554368317 8.453842163
0.5129480958 0.3209198713 8.505231857
1.086782098 -0.5087548494 8.478295326
1.038172007 -0.5775004625 8.494691849
1.027977705 -0.5421183705 8.470726967
1.001900673 -0.4641856253 8.445425987
1.018850327 -0.5022952557 8.451113701
1.051353455 -0.2210631669 8.308207512
1.040195227 -0.2131509781 8.316720009
0.8786783814 0.4202593863 8.607653618
0.9081082344 0.4142784774 8.598716736
0.8187762499 0.3185156286 8.518437386
1.013783336 -0.3741300404 8.391689301
1.081333995 -0.385928452 8.364780426
0.4157851338 0.3126576543 8.594485283
0.4295048714 0.3237271011 8.603725433
0.4186092019 0.3149225414 8.580120087
1.046382666 -0.6147965193 8.53428936
1.060140729 -0.6104511023 8.525083542
1.061343193 -0.6023613811 8.517145157
1.053216219 -0.6075265408 8.517195702
1.010991573 -0.5113219023 8.456833839
1.098146081 -0.3888150454 8.371300697
1.110314369 -0.3912523389 8.385577202
1.069058776 -0.5556987524 8.492188454
1.045061111 -0.5195581317 8.454806328
1.062802076 -0.4928534031 8.446357727
1.068435192 -0.5397732258 8.478904724
1.038659573 -0.5309829116 8.462021828
1.08079648 -0.477951616 8.447889328
1.063652873 -0.4684820473 8.438943863
1.034730911 -0.2037268579 8.315416336
1.102712989 -0.4264555573 8.459342957
0.6885432005 -0.2177656293 8.439070702
0.6057162881 -0.1550976187 8.45419693
1.073303103 -0.5088581443 8.459072113
1.070024371 -0.2293729484 8.299430847
1.694818974 -0.1308289021 8.490115166
1.218621373 -0.2793855071 8.512879372
1.211100698 -0.283113271 8.34173584
1.07221663 -0.5243008733 8.471042633
1.081510782 -0.537682116 8.498763084
1.089369535 -0.402743876 8.388299942
1.032174468 -0.1896231472 8.29295063
0.9826536179 -0.1336472929 8.274607658
0.9830527306 -0.1217795759 8.262896538
0.9158424139 0.02718003653 8.295481682
0.9420371652 0.07130387425 8.348298073
1.012453675 -0.1408308446 8.271805763
0.460926652 0.3534478843 8.608683586
1.647795916 0.08414423466 8.489936829
1.260078669 -0.2065433562 8.357950211
1.114071131 -0.4633193314 8.512187958
1.131357551 -0.3675341904 8.428526878
1.063887477 -0.3889189959 8.371678352
0.9953404069 -0.1807979345 8.315899849
0.5016222596 0.3330507278 8.525454521
0.9217541814 -0.02300337143 8.26042366
0.6920765042 0.3065202534 8.51368618
1.038610578 -0.1607819796 8.283044815
0.957800746 -0.08634854853 8.257774353
1.031289101 -0.1734667271 8.278373718
0.9992026687 -0.151680842 8.277812004
0.7394806743 -0.2086135596 8.41324234
0.8047806621 -0.1858135909 8.388202667
0.9009281397 -0.1043811813 8.31648159
0.9949235916 -0.1107725948 8.262939453
0.5302384496 0.3725224435 8.568397522
0.9652991891 -0.1182867959 8.276865959
0.4824844599 0.4033949375 8.642679214
0.508742094 0.4358021021 8.641469955
0.9379802942 -0.01930366084 8.263243675
0.686424315 -0.0382360518 8.411327362
0.693648994 -0.1621954143 8.414514542
0.962204814 -0.0663863048 8.254173279
0.946226716 -0.03823458403 8.2638731
0.9364438057 -0.08276755363 8.278103828
1.33499372 0.7061370611 8.653265953
0.9628612399 -0.07890710235 8.249982834
0.9912227392 -0.03727851063 8.284991264
0.955273211 0.01107339375 8.29044342
0.9525985122 -0.07365848124 8.258294106
0.7789764404 0.3591397405 8.563307762
0.4899434745 0.3243575394 8.519341469
0.518994391 0.417162776 8.61073494
0.5312073827 0.4185301363 8.609853745
1.367880464 0.7019997239 8.625849724
1.356969714 0.7095002532 8.630267143
0.5426553488 0.3908510804 8.589551926
0.5260762572 0.4089831114 8.603649139
0.4282618165 0.3203569353 8.573271751
0.539260447 0.490929842 8.670805931
0.429680109 0.3228099346 8.585816383
0.5381370187 0.3810142577 8.578766823
0.5238392949 0.4472510517 8.628952026
0.5417960286 0.4457959831 8.625365257
0.5637769103 0.3998287022 8.599189758
0.5386844277 0.4102216363 8.605670929
0.5151313543 0.4060592055 8.603003502
0.508664906 0.4267596602 8.622249603
1.358161092 0.6974601746 8.634289742
0.5723383427 0.422177881 8.617827415
0.5327542424 0.4750004709 8.671460152
0.960695982 0.4593326151 8.640000343
0.9834593534 0.4839891493 8.676428795
1.400872588 0.6682115793 8.630134583
0.5552463531 0.4419209063 8.627235413
0.5746119618 0.4877021611 8.661289215
0.9615690708 0.4962928295 8.6686306
0.5277038217 0.4621245265 8.640450478
0.5383395553 0.4744192958 8.642238617
0.5395011306 0.4599869549 8.63326931
1.393465877 0.7043021917 8.617869377
1.334694266 0.7203662992 8.647172928
0.5303542614 0.4316821396 8.617063522
0.5430719256 0.4214539826 8.612956047
0.5485417247 0.4329699874 8.620494843
1.34635222 0.7104939818 8.639605522
1.36140573 0.684107542 8.641065598
1.370958686 0.6871974468 8.630497932
1.461793661 0.6279450059 8.631573677
1.41420269 0.7222035527 8.610569
1.387410045 0.7182986736 8.618024826
1.47288847 0.6443659663 8.621735573
1.475399017 0.6544322968 8.616052628
1.444983482 0.6097559929 8.644546509
1.452271938 0.6190201044 8.637953758
1.349130034 0.6947721839 8.646087646
1.37360239 0.6737144589 8.639515877
1.43723762 0.6525933146 8.629034042
1.427146673 0.664132297 8.626362801
0.8863776922 0.44229123 8.623889923
0.8848212957 0.4513937831 8.633168221
0.8971839547 0.4514626563 8.62983036
0.9551990628 0.4819057286 8.65536499
0.9254469872 0.4600987434 8.635017395
1.485973597 0.5675726533 8.648774147
0.9568297267 0.4455448687 8.629213333
0.9013981223 0.4402909875 8.619311333
0.9136360884 0.4501371384 8.626585007
1.533504844 0.591802597 8.614637375
1.546373725 0.5788139105 8.619486809
0.9258779287 0.4119570553 8.595913887
0.9398160577 0.4351525903 8.614710808
0.9444169402 0.4091362953 8.593219757
0.9995191693 0.3536031544 8.597252846
0.9232450724 0.4245109558 8.606128693
1.724223971 0.5885341167 8.536828041
1.692807674 0.5510393977 8.563895226
1.665693045 0.6126050353 8.553672791
1.543157458 0.7154800296 8.549754143
1.773515821 0.5966864824 8.502196312
1.565784574 0.6309465766 8.586565018
1.480592012 0.6745940447 8.606281281
1.492912889 0.6538496017 8.608724594
1.615249991 0.6989411712 8.533521652
1.607596874 0.6882340908 8.541128159
1.672437429 0.7177160978 8.49679184
1.616369724 0.6501555443 8.562571526
1.599057436 0.6342156529 8.576786995
1.66307199 0.650947094 8.52963829
1.584028602 0.5545081496 8.624631882
1.604431272 0.5620794892 8.60646534
1.502080679 0.6209834218 8.615867615
1.493370295 0.6333888173 8.618030548
1.485603809 0.646510601 8.616481781
1.481310129 0.6341557503 8.624475479
1.566342831 0.5032884479 8.64752388
1.595424533 0.6183581352 8.58311367
1.558434367 0.6471925974 8.583651543
1.565875411 0.659557879 8.57555294
1.627630711 0.5051291585 8.628247261
1.450993657 0.6537362933 8.623405457
1.464208007 0.6547651291 8.618551254
1.659454346 0.545555234 8.577712059
1.667106152 0.5574573278 8.572029114
1.549598098 0.6350716949 8.590411186
1.556059241 0.7173069119 8.544599533
1.565107465 0.7100653052 8.546482086
1.429803848 0.5960767865 8.657211304
1.553429246 0.6591283679 8.581536293
1.462766171 0.7165644765 8.594651222
1.461020827 0.6419395208 8.625849724
1.434279561 0.6087542772 8.650431633
1.471013904 0.6657734513 8.612823486
1.455989122 0.6696663499 8.615740776
1.545044184 0.6651408672 8.582369804
1.574122429 0.5899439454 8.605278969
1.58680892 0.5966731906 8.596498489
1.53024745 0.6789115071 8.578661919
1.522710204 0.6886327863 8.576191902
1.585702538 0.7002093792 8.544699669
1.551498175 0.6815239191 8.569892883
1.554079413 0.6694195271 8.576366425
1.431325793 0.6953241825 8.613532066
1.466758847 0.6799830794 8.6098423
1.571247458 0.7003706098 8.550239563
1.57709229 0.7102382183 8.543230057
1.930052757 0.6969684362 8.387458801
1.475670695 0.7078025341 8.593712807
1.568946481 0.7196332812 8.54106617
1.541647911 0.6750606298 8.577608109
1.642176509 0.6512600183 8.545539856
1.824252963 0.6595949531 8.458096504
1.881964564 0.7126424909 8.397988319
1.622124434 0.7103188038 8.526782036
1.626324415 0.6855354905 8.533781052
1.905410767 0.7200667858 8.38383007
1.832468152 0.6720012426 8.448866844
1.847106218 0.6686280966 8.441240311
1.775915623 0.7015991211 8.448609352
1.821373582 0.7103636861 8.428913116
1.939569354 0.6871020198 8.390213013
1.93230927 0.6747336388 8.399409294
1.948839545 0.6746957898 8.392486572
1.83136797 0.6833437681 8.441248894
1.807517052 0.6790963411 8.454880714
2.229697704 0.7078682184 8.241920471
2.274809361 0.6791521907 8.232698441
2.307286263 0.6557841301 8.224318504
1.863616109 0.3961437345 8.556159019
1.853431582 0.327991873 8.542760849
2.416595936 0.6274752617 8.176408768
2.469139814 0.5216979384 8.195456505
2.470333576 0.6074736714 8.158870697
1.871608019 0.6344122291 8.442241669
2.357863426 0.660939455 8.18969059
1.911457658 0.6774209142 8.404762268
1.789988041 0.6952309012 8.448340416
1.71034348 0.7159641385 8.484723091
1.694984078 0.7111439109 8.493024826
1.765177011 0.6945247054 8.456410408
1.778941154 0.6897927523 8.455645561
1.711688995 0.6730696559 8.50464344
1.68954432 0.6972993612 8.500638962
1.697428107 0.68253088 8.504225731
1.773957133 0.6397868991 8.475223541
1.763921261 0.6392318606 8.483884811
1.771144748 0.6298408508 8.480894089
1.613928676 0.5810193419 8.589930534
1.602482557 0.5758615732 8.600365639
1.713622093 0.6868087649 8.49712944
1.769583344 0.6847383976 8.461690903
1.726138353 0.6223368049 8.520972252
1.715255976 0.6455863714 8.516149521
1.809060335 0.6642307043 8.461116791
1.781492829 0.6038341522 8.489222527
1.792380333 0.6841434836 8.45614624
1.780811787 0.6789046526 8.46307373
1.76691103 0.6741530299 8.469097137
1.781016946 0.6658170819 8.467490196
1.722578049 0.6660963297 8.504449844
1.816675901 0.5348801613 8.51478672
1.69897294 0.665197134 8.510950089
1.798794746 0.6123158932 8.469099045
1.78628099 0.6385951638 8.46818924
1.631049156 0.4734228551 8.634043694
1.627172947 0.6116496921 8.572844505
1.756381989 0.5375158787 8.544369698
1.733510852 0.6656359434 8.496576309
1.778487206 0.6521480083 8.470468521
1.794449925 0.6714273691 8.462370872
1.728837609 0.6525889635 8.508039474
1.740871549 0.6386994123 8.506620407
1.768843651 0.6115096807 8.495225906
1.760535359 0.6060977578 8.506752014
1.757187963 0.6861938238 8.464992523
1.965130806 0.5839269161 8.424550056
1.967301726 0.6132637858 8.41071701
1.759126067 0.6634587049 8.477531433
1.770548224 0.6618888378 8.472743988
1.723709822 0.6768895984 8.496800423
1.749490261 0.6155480742 8.510231018
1.745742798 0.6645066142 8.485489845
1.819458723 0.6716851592 8.456045151
2.45012331 0.6625168324 8.1437006
2.351403236 0.6099392772 8.218652725
2.363396883 0.5784249902 8.226998329
2.300051689 0.6180657148 8.251005173
2.316960096 0.5726675391 8.260951996
2.257453918 0.5879621506 8.287269592
1.932756901 0.6056994796 8.429235458
2.032665014 0.5646284223 8.400860786
2.00508523 0.5922104716 8.402895927
1.991610765 0.555205524 8.42516613
1.921014667 0.3524427712 8.480207443
1.946943164 0.4311825633 8.481474876
1.904912114 0.4243470132 8.513957977
2.007469893 0.5238915682 8.433409691
1.975737095 0.5218049884 8.448703766
2.032976151 0.5432049632 8.410679817
1.99400878 0.4897618294 8.453100204
1.983358979 0.4718046486 8.458062172
1.69339776 0.5057100654 8.578021049
1.764886856 0.6258099675 8.489850044
1.561131239 0.5673063397 8.624471664
1.694930553 0.6235294938 8.533958435
1.700284362 0.6321764588 8.526184082
1.614880204 0.5672799945 8.595788002
1.626711726 0.5581744909 8.592098236
1.616543293 0.5534303784 8.601607323
1.626256347 0.5978777409 8.576128006
1.542982101 0.5434501171 8.644533157
1.537103534 0.5543062687 8.641487122
1.553828835 0.5508525968 8.635734558
1.527017713 0.5655897856 8.63703537
1.652758241 0.4925222993 8.613716125
1.645329356 0.4904971719 8.622789383
1.472351193 0.5980784297 8.635609627
1.466179132 0.6131043434 8.634171486
1.46246314 0.5874688029 8.644506454
1.445099831 0.5945178866 8.650097847
1.937088728 0.5498720407 8.451357841
1.50724268 0.554512918 8.653040886
1.612689853 0.5942934752 8.583899498
1.671954513 0.520185709 8.57926178
1.571972251 0.6050810218 8.596142769
1.556248546 0.6103933454 8.59798336
1.576661348 0.5747218728 8.615022659
1.555453658 0.6225351095 8.592774391
1.637633085 0.5466469526 8.589306831
1.632119656 0.5381668806 8.597460747
1.626640558 0.5469030738 8.597074509
1.59619987 0.5212247372 8.632946968
1.582739711 0.5422601104 8.629870415
1.647634387 0.5509776473 8.581942558
1.809339523 0.3870111108 8.583870888
1.798016191 0.3301877975 8.592455864
1.757449746 0.3783619702 8.607516289
1.652811646 0.5236151814 8.588130951
1.641734958 0.5320817828 8.592627525
1.548910141 0.5217731595 8.648859978
1.593533874 0.5342662334 8.628845215
1.607883096 0.5319517851 8.622566223
1.582873583 0.5150306225 8.638561249
1.570901155 0.5527344346 8.62969017
1.688956618 0.4550349712 8.601420403
1.766979814 0.2495221943 8.563932419
1.632320046 0.4890085757 8.631766319
1.699108005 0.4296915829 8.614090919
1.755146861 0.4494479597 8.582325935
1.66392827 0.5146201849 8.585536957
1.650376201 0.5380282998 8.584012985
1.632912397 0.4338303506 8.643182755
1.743613243 0.4223965406 8.600022316
1.950495481 0.5099973083 8.458583832
1.716362357 0.4043326676 8.62074852
1.797744989 0.4102719128 8.576742172
1.771417856 0.4226087034 8.585839272
1.863367558 0.4288582206 8.546051025
1.813251257 0.403847307 8.574790001
1.582980633 0.5288298726 8.633798599
1.621373177 0.5381188989 8.607352257
1.595417619 0.5450213552 8.623196602
1.662481546 0.5291833878 8.580171585
2.703605413 0.1137299761 8.211905479
2.303018093 0.4840451181 8.299208641
1.831050277 0.4045297503 8.571612358
1.833885789 0.4394993484 8.553062439
1.824626923 0.4160281718 8.566753387
1.910404921 0.480519563 8.492649078
1.926651478 0.5064045787 8.472052574
1.810728192 0.4170797467 8.56871891
1.797138214 0.4457487166 8.565530777
1.796714187 0.5268102884 8.530780792
1.730090141 0.4934496582 8.571864128
2.096353531 0.5061613321 8.392172813
2.036244154 0.5190265179 8.41908741
1.868359566 0.4669915736 8.524313927
1.824278116 0.3781671226 8.582349777
1.883975744 0.5196465254 8.489465714
1.967245817 0.4942628741 8.457866669
1.970880628 0.4542601109 8.463882446
1.943354368 0.4760866165 8.47481823
2.036897182 0.4842627645 8.430772781
2.025136948 0.4273572564 8.444858551
2.091093302 0.3495193124 8.405293465
1.167770982 -0.4062536061 8.633385658
3.222171307 -2.291884661 10.851964
-0.8804708123 -0.1239969209 10.0167942
-0.1454238743 -0.2061442882 9.741905212
1.073717117 0.9752141237 8.654190063
1.06579566 0.9581469297 8.663412094
-0.2912330925 -0.3365776241 9.859068871
-0.2764850855 -0.3401974142 9.850562096
-1.232545733 -0.6584928632 10.4114933
-1.236707687 -0.6702464819 10.41911697
0.1485582292 -0.2130624354 8.633009911
0.1814244092 -0.2162983418 8.624466896
0.1897577345 -0.2466520071 8.636663437
