# .PCD v0.7 - Point Cloud Data file format
VERSION 0.7
FIELDS x y z
SIZE 4 4 4
TYPE F F F
COUNT 1 1 1
WIDTH 1321
HEIGHT 1
VIEWPOINT 0 0 0 1 0 0 0
POINTS 1321
DATA ascii
61.96747971 5.38766098 17.05327415
50.52863312 10.00891876 14.6885643
56.94119263 13.10778427 30.80121994
50.48584366 9.788581848 13.93494797
50.47261047 9.805130005 14.16533279
59.93518066 15.11620331 27.31741714
52.34814835 8.920433044 11.45081043
52.15406799 10.95113754 14.627882
62.88253021 17.21958542 14.40736389
50.40662384 9.882331848 14.2560463
50.63938522 9.891685486 14.75597668
64.08298492 15.22246552 10.4117136
50.5687027 9.820865631 14.46842098
59.23088837 14.9056282 27.4299736
50.53035736 9.844963074 14.63067055
50.43021011 9.946403503 14.50561905
58.17150116 13.83869553 19.89086914
51.78587723 10.71141052 14.73094082
61.42220306 5.56829071 17.27635193
51.16497421 10.3207283 14.83922577
61.72611618 8.802284241 24.25000191
50.99562836 10.25999069 14.84152794
54.09593964 12.33200455 15.0078373
60.35921478 6.222709656 17.0489502
59.54806519 12.90781403 26.89612007
65.91691589 -0.6935806274 1.125091672
58.48373413 13.34950638 31.20815849
52.67290497 11.57939529 14.72378826
53.53098297 12.04175186 14.89457321
52.70813751 11.39880371 14.83886719
51.0201416 10.56215286 14.67452717
52.1696701 11.28666687 14.68399143
52.67443085 11.08597565 13.52605152
52.36980057 10.89305115 13.73878288
64.51667786 17.50958633 14.28907681
57.43878937 12.67657089 31.01573753
53.36334991 11.70618439 14.19633389
52.84493256 11.32678604 13.97857761
65.7572937 1.135864258 1.780463219
53.820858 11.97701645 13.99573517
63.30343628 1.849662781 5.469234943
58.94291687 14.89308167 24.84780502
62.5661087 5.591197968 16.4656105
59.8988266 14.22485733 24.40783119
51.53252029 10.28951645 13.89079285
52.07846832 10.74943924 13.93801975
51.64093018 11.05527878 14.33401585
54.71899796 12.58029938 14.48862934
57.08198166 12.80569458 30.64500809
54.20960236 12.28334808 14.62644672
53.86450958 12.04661179 14.42186165
51.06250381 10.16697311 14.62584591
62.65145111 5.584907532 17.73637772
51.28087616 10.83863831 14.15219212
65.57394409 6.777626038 5.471646786
51.30348206 10.32361984 14.47891903
51.55482483 10.52755737 14.61631489
52.55797577 11.2108078 14.50676632
57.18075562 13.26669693 30.95639038
51.86251068 9.576389313 13.13265228
60.50759125 7.720851898 12.79798889
50.68811798 9.890579224 14.56480122
65.10951233 -0.7257080078 3.01946044
50.69229507 9.875873566 14.43038845
58.36816406 14.60057449 30.32596397
58.15215302 14.6858139 20.36842537
51.08760071 10.04818726 14.14258957
59.95376587 14.59981155 27.32370377
51.79203796 10.75204086 12.5578022
56.60118484 13.6928978 28.45479012
51.61874771 9.106483459 12.1021328
55.71162415 13.50175858 14.81761932
60.24337769 14.78911972 26.98743057
52.56652832 10.70904922 11.79644394
52.20916367 11.36023712 13.22821617
59.60414886 14.06193924 24.63918495
51.09160995 10.69087982 14.40827847
64.38834381 -1.02495575 2.469928503
52.10202026 11.34329224 14.31751156
67.03112793 0.07846069336 1.472054243
62.43105316 0.9193496704 4.081261635
54.50659943 12.69949341 14.86961079
65.47610474 -0.9679489136 1.122032046
59.29800415 14.66281891 24.89684486
52.49791718 11.61539078 13.53950691
65.94652557 -0.4556808472 2.027270794
66.60048676 0.3884277344 1.120728135
60.16409683 12.92570877 30.80118752
52.49257278 11.57901001 14.3080492
58.76163483 14.40936661 26.09732819
61.58904648 1.839927673 4.61950922
51.75859833 11.13370514 13.7098074
52.14656448 11.3848877 13.62031651
58.78092957 13.90068436 13.61330128
61.76115417 5.420955658 17.10338402
65.12595367 0.1096038818 4.430575371
56.63150024 13.90878296 14.55587769
51.6337738 9.503253937 11.74759483
56.14681625 13.68826675 14.57889462
56.53568268 13.81819153 15.04737091
55.52690887 13.42984009 14.33406734
56.39395142 13.73979568 17.01168251
55.05091095 13.21363449 14.21108246
53.30736542 10.89171982 11.5176363
63.59877014 4.871643066 13.33412838
51.1989212 9.404212952 12.41265488
52.90743256 11.82181168 13.05185795
65.41358185 7.032367706 4.97066021
63.34370041 7.013778687 17.28311348
52.73828506 11.49724197 12.62758255
66.09357452 0.9538803101 1.499025583
58.6255722 14.86860657 27.03604317
53.82939148 12.03229904 12.39782906
53.90536499 12.40802002 12.93599033
54.63499451 12.91412354 14.48383713
57.9088974 8.889968872 9.613853455
53.96871185 12.53620911 14.13048649
55.90319443 5.749900818 9.118569374
66.36102295 0.5969848633 2.364956379
53.62394714 12.3776207 13.40319157
54.39900208 12.87407684 13.80361938
63.97773743 -0.7635269165 2.161310434
63.24956894 6.260280609 18.27924538
59.92835617 14.49412918 27.26478386
57.87200546 14.12504196 21.90169144
50.93663025 9.776115417 12.03632355
51.12368393 9.70715332 11.81005478
50.98897171 9.705402374 12.26538944
51.02745056 9.745864868 12.11767387
50.83657837 9.71566391 12.49692059
58.95116425 12.13417435 31.61154747
50.90004349 9.720775604 12.36413288
58.26348877 14.57145691 15.81562519
59.26976013 13.61189651 30.41474915
51.03470612 9.764690399 12.01041508
65.39994049 0.2487716675 2.636144161
64.2842865 1.434692383 2.580169678
50.6533432 9.727935791 12.9579792
64.67202759 -1.101531982 2.354295015
50.65437317 9.769733429 12.7176733
50.76992416 9.715499878 12.64527416
50.7942276 9.753223419 12.43599892
66.45859528 0.1817092896 3.625909805
50.75714874 9.78768158 12.35575867
51.89227295 8.93473053 11.88546562
51.46607971 9.270523071 12.15462303
66.34477234 0.6163787842 1.44036746
57.15314484 12.53879166 30.42214584
57.69279099 11.40761566 25.88148689
50.86981583 9.544147491 13.05784416
58.87512207 14.315979 13.59670544
50.95953369 9.564426422 12.61402035
51.03612518 9.708309174 12.1967783
65.13592529 -0.5669250488 2.315011024
57.33208466 12.12824631 29.83004189
58.17201233 13.27238464 17.48469162
65.80528259 -0.8682327271 1.130431652
50.9990921 9.683639526 12.30408192
51.0290451 9.536975861 12.51691055
51.10553741 9.512050629 12.41304207
51.4947052 9.630374908 11.97821236
63.2059288 6.95986557 16.93462753
56.93157578 12.95452499 30.46312714
51.39865112 9.645301819 12.04455853
51.50961304 9.342258453 12.05686378
57.08078766 13.23868942 30.93856621
52.20285797 8.921211243 11.57826042
51.514534 9.462715149 12.01890278
58.58613205 14.59467697 25.21888924
51.07252502 9.710819244 12.16247177
62.24333954 5.53168869 17.12133789
51.09548187 9.677021027 12.20305347
57.31711578 12.44122314 30.99679756
63.78019714 4.668907166 6.422540665
51.12269211 9.635574341 12.22992611
51.38964081 9.555526733 12.07859325
51.80231857 9.416843414 11.77107239
59.90395355 10.95618057 19.67189789
66.2624588 0.8684921265 2.199594259
52.09422302 9.179523468 11.5946579
57.78908539 4.706989288 7.466303349
59.45559692 3.378013611 6.260573387
58.76451874 9.115516663 23.14619255
58.27690887 10.91303635 30.54535675
56.97257614 5.405757904 8.019311905
60.29664993 11.56554413 30.0586319
55.39711761 6.630794525 9.186544418
65.4140625 0.8242645264 2.588903904
59.28197479 14.10445023 24.82304382
54.31171799 7.160202026 10.11279106
52.88078308 8.446784973 11.08664417
61.73709106 10.35746765 23.27733612
54.87858582 6.821708679 9.663574219
58.0976944 14.60815048 28.95708084
53.03044891 11.38598633 13.52855778
59.88644791 15.17442322 13.51428986
55.64674377 6.279636383 9.084616661
63.03470993 0.3506546021 3.72932601
61.6575737 5.447349548 17.49812508
65.36684418 -1.082466125 1.125004053
56.42078018 11.22527313 11.49929619
63.92935944 -0.3549194336 3.096183538
57.13665771 5.03849411 8.018060684
58.0093956 12.65623474 31.31217957
64.99841309 -0.6542434692 2.028053999
61.3044281 4.831195831 6.700194359
58.78277206 3.649459839 6.835272312
64.91869354 -0.6574554443 3.044626236
57.21836472 14.33273315 13.80850506
59.66998291 11.35390472 19.43741608
61.66591644 1.648490906 4.612056255
63.19008636 7.595031738 17.43141174
64.46413422 17.48365402 12.06415749
62.5635376 0.9327011108 3.928423405
62.73646545 0.977645874 3.313515663
60.18082428 12.15951157 30.62587357
58.63692474 3.924724579 6.89560461
60.97082901 2.061042786 5.172847748
63.84157562 -0.2720489502 3.067304134
62.48210144 7.477416992 16.58583069
60.69511414 6.15247345 19.73381424
64.10545349 -0.5038528442 2.971960783
63.53176117 0.09094238281 3.160413027
57.93806076 13.90138245 22.21614456
63.64271545 -0.0569152832 3.130336761
63.84767151 -0.2895126343 2.923709631
59.467659 11.8834343 31.35666656
59.36599731 3.665672302 6.017446518
63.68228912 -0.0891418457 2.990199089
63.40689468 0.2464141846 3.242527485
63.32658005 0.2840499878 2.911916256
63.47978592 0.1299362183 2.929877758
63.32060242 0.3757858276 3.02452755
63.46390533 0.2295913696 3.03922987
62.7190361 7.480503082 16.75137138
64.21340942 -0.6273727417 2.880366802
60.21243668 14.68404007 26.81065369
59.66788483 9.150112152 13.18896389
64.04897308 -0.5197372437 2.859411001
64.29637909 -0.8109207153 2.772189856
51.98479462 9.183185577 11.22642708
63.15951538 6.061950684 17.60170364
60.13536072 14.72955704 27.24215317
63.86177826 -0.5432052612 2.623272419
63.65895462 -0.2729568481 2.680356741
66.93209839 0.5631713867 1.199732661
63.7218132 -0.4057922363 2.566909552
63.6090126 -0.1395950317 2.784519434
64.49855042 -1.031082153 2.568072796
53.32839966 7.801280975 11.3331213
64.32629395 -0.9691543579 2.567548513
64.3162384 -0.9281387329 2.647325516
64.22268677 -0.9060745239 2.574269056
63.93735504 -0.5153961182 2.762891769
65.46192169 -0.8347091675 1.435029387
58.9767952 11.1226387 30.80331612
63.10321808 5.675880432 15.62098503
64.13800049 -0.7325439453 2.730576754
64.0785141 -0.8473052979 1.798345804
57.50183105 14.30389786 29.36659622
64.28768921 -1.039115906 1.685462236
64.29862976 -1.010765076 2.350718498
64.19943237 -0.9790344238 2.083225965
63.49396896 -0.1591415405 2.444504738
63.77850342 -0.5323867798 2.232175589
65.36935425 -1.145782471 1.454740167
65.04380035 -1.194282532 1.593051791
58.82774734 13.72678375 14.44039059
62.93310547 4.813365936 14.6761713
65.14717102 -1.166595459 1.749055743
64.88611603 -1.183769226 1.328249097
64.77759552 -1.189277649 1.446183085
60.83374786 5.775867462 17.39211273
64.57660675 -1.120582581 2.208585978
64.43868256 -1.115951538 1.896628618
56.8927536 13.57933426 30.7244339
57.55839539 13.00635147 15.84099007
64.49703979 -1.122787476 2.056013346
64.69232941 -1.152694702 2.058312416
64.8105011 -1.175544739 1.902324677
63.22268677 7.57000351 18.35400581
64.38130188 -1.032798767 1.275222301
64.48584747 -1.123130798 1.423795581
63.53093338 0.3901367188 1.684971929
64.38343048 -1.093429565 1.551444054
64.66479492 -1.178619385 1.584701896
64.3806839 -0.9698104858 1.192539573
64.47057343 -1.028778076 1.203974247
60.00651932 8.229888916 16.43013
64.67500305 -0.9749145508 1.120046973
60.10771942 14.53357315 26.73254967
66.35316467 0.3964080811 1.535800099
64.56224823 -0.9177246094 1.117498398
64.70068359 -1.118301392 1.22644794
63.08085251 5.90114975 17.15155792
64.99511719 -0.8882598877 1.163965225
65.06983948 -1.023475647 1.114026427
65.23766327 -0.1636199951 2.575438738
65.68753052 2.04058075 5.879292488
65.19837189 -0.989364624 1.12487185
64.77307129 -0.8601150513 1.125271916
64.88504028 -0.9120101929 1.125454187
66.82100677 -0.3068008423 2.196941137
57.39147949 13.26523209 30.95951843
65.43642426 -0.02112579346 4.183712006
64.77954865 -0.9414901733 1.109737873
61.57751083 8.245750427 16.50102806
59.18812943 8.065856934 21.93921661
65.37166595 -1.139663696 1.24115479
64.83054352 -1.146728516 1.233065248
59.82262421 11.98869705 30.93703651
59.06628799 14.34309387 27.66481209
64.95542145 -1.160896301 1.238708854
65.28876495 -1.090286255 1.12554729
51.71777344 9.331375122 11.29749966
59.96082306 14.93082047 27.34708595
65.12886047 -1.132553101 1.176663637
65.01200867 -1.084785461 1.132401109
57.93109894 13.49616241 22.44806862
64.89740753 -1.059181213 1.128603697
64.80500793 -1.090896606 1.165055752
65.32350922 -1.042106628 1.105517387
60.77343369 11.60943604 28.7879982
61.7083168 5.478683472 17.00498962
65.56246185 -1.016174316 1.124775648
66.93946838 -0.1830444336 1.888908982
59.59107208 15.18925476 26.88584137
65.48036194 -1.052230835 1.124400139
65.17855835 -0.8480987549 1.318517685
63.97676086 -0.6478881836 1.503089547
57.70173645 14.10677338 30.75851059
65.31576538 -0.9012374878 1.22953546
65.24440765 -0.9426116943 1.164472103
65.28494263 -0.9943618774 1.122513294
58.37672043 11.50679398 31.16372681
61.26044464 5.654453278 17.3231144
58.63083649 9.269477844 24.31121445
65.59521484 -0.8182907104 1.315607429
65.9153595 1.043563843 1.71105516
65.6270752 -0.8304214478 1.228704572
56.96052551 12.98237228 30.62527275
65.38059235 -0.9875640869 1.12197566
57.5659523 11.8524971 30.97880936
65.71676636 -0.9819793701 1.243764043
60.24472809 14.84212112 27.07613373
65.62026215 -1.051956177 1.335445166
63.00722122 6.075534821 16.33968163
66.05944061 -0.7809371948 1.332480431
66.15486908 -0.6815719604 1.241015553
65.9968338 -0.57421875 1.165170431
66.83115387 0.1160507202 1.147441745
66.31949615 -0.3672714233 1.113166928
58.78598785 14.27439499 25.69865608
66.14958191 -0.4726104736 1.128633857
59.86821747 14.6221199 27.3645153
66.36387634 -0.2277450562 1.12340498
59.47123718 12.7199173 31.34872818
66.87141418 -0.05303955078 1.309279442
66.75704193 -0.1161193848 1.224108338
66.38331604 -0.4893569946 1.238073111
64.46641541 -0.633934021 1.136240721
66.58016205 -0.3052597046 1.231867433
66.55044556 -0.3843994141 1.319774747
56.80058289 13.55060959 30.64014244
59.89834595 14.72322845 24.81499863
66.4944458 -0.2637405396 1.125761509
66.04794312 -0.682723999 1.132553458
58.21883774 13.69709396 30.99886513
66.27043152 -0.4849472046 1.130371213
66.471138 -0.5384063721 2.30970645
58.9712677 13.62228012 17.48921776
58.05230331 10.55534363 29.35277939
66.24689484 -0.7059555054 1.927871108
58.79916382 13.75951004 30.8399868
66.36961365 -0.6215209961 2.113734961
66.1537323 -0.7476730347 2.111314297
66.56473541 -0.4914779663 2.105333328
62.78024292 7.010665894 16.48914909
60.21250534 15.22966003 12.70024204
60.24104691 14.95462418 26.7435379
66.64768219 -0.4282150269 1.906511664
65.80158234 -0.9613952637 1.453214765
66.04475403 -0.8110809326 1.449698925
63.71906281 7.929027557 7.096814632
65.87506104 -0.9198303223 1.756748438
64.22480011 0.7780380249 1.663836479
65.96437073 -0.8730239868 1.595031142
59.84296799 15.22366714 24.7335186
66.10943604 -0.7904129028 1.754610062
66.95269012 -0.03025054932 1.43936801
61.52236176 10.78024673 24.85803413
61.19460297 15.84165573 13.01403618
66.819664 -0.1745376587 1.427977681
59.31158447 14.73940659 26.51044846
60.77466583 7.2721138 10.62112427
66.71650696 -0.3540267944 1.725877643
60.43202209 5.956356049 17.44844627
58.73445892 14.90557098 26.35697746
66.7715683 -0.2699890137 1.566893101
66.32970428 -0.6474761963 1.748027682
60.2620163 14.95092392 27.07536507
62.23712921 7.37846756 16.27415848
66.53369141 -0.4996871948 1.737132072
66.88320923 -0.2537994385 2.046680927
67.08142853 -0.004577636719 1.979158759
67.05335999 -0.008735656738 1.735901356
67.04736328 0.09375762939 2.36890626
62.67293549 6.846000671 16.25065994
67.02648926 0.2381134033 2.379213572
67.0415802 -0.02037811279 2.362788439
67.08557129 0.125831604 2.103719473
67.07132721 0.04234313965 2.235472679
65.65727997 5.878639221 5.018073559
65.88453674 -0.5547180176 1.87584126
59.82320023 12.2776947 11.07491016
67.08327484 0.00984954834 2.096894741
66.98431396 -0.1606826782 2.051649332
67.04814148 -0.07856750488 2.084947586
67.0078125 -0.1424407959 2.203538656
66.77075958 1.213027954 1.550193071
66.84508514 1.037887573 1.505556941
66.7869339 1.178581238 1.423799753
66.93115997 0.7540817261 1.782743812
66.75865173 0.1658782959 1.111410499
57.64163971 12.32490921 13.11309338
58.99534607 14.12740707 30.12031555
66.89079285 0.8987426758 1.632443428
66.96710205 0.6069335938 1.944333076
66.85281372 0.9443435669 1.810285926
66.92018127 0.8245773315 1.326798916
66.91445923 0.8616485596 1.467043877
60.11140823 14.60134125 26.67708778
66.98176575 0.4061813354 2.404458046
60.06155396 15.04081726 24.62941551
66.99723816 0.4639129639 2.105326414
66.99191284 0.2508850098 1.260734677
65.93104553 0.596824646 2.606116056
65.70275879 0.2542800903 4.58910799
67.04220581 0.2891845703 1.377007484
67.03138733 0.4412231445 1.363021612
66.41226196 0.2966156006 1.208425999
59.0877533 8.272727966 22.55814362
66.99206543 0.5148086548 1.276545048
59.16390228 14.3760376 27.56006241
67.07691956 0.2675170898 1.56934464
67.08711243 0.2472686768 1.777280211
66.99742889 0.5819473267 1.751849174
59.80229568 13.37389755 30.69740868
67.0417099 0.460105896 1.696561337
59.61653137 8.682121277 25.92442894
67.01248169 0.5762786865 1.565187216
57.49130249 12.44953918 31.14558792
59.40847778 13.93571854 24.54512024
66.92677307 0.1788024902 1.201636791
66.63579559 0.003280639648 1.099834442
65.73920441 5.491569519 4.651538372
66.72644806 0.05348205566 1.113166094
52.45168304 8.779800415 10.66608906
66.67511749 0.2149810791 1.100569487
58.45932007 12.50603485 31.533041
66.06280518 -0.4012451172 1.297901511
66.15380096 -0.329208374 1.216296673
64.12165833 16.29560471 12.99506569
59.52194977 15.18183136 27.06992912
66.25201416 -0.155128479 1.211403131
66.23035431 -0.08768463135 1.294319749
66.42219543 0.6353607178 1.238896847
66.58764648 0.2745361328 1.114865541
66.50495148 0.3556442261 1.153196931
66.34031677 0.2283325195 1.293498993
58.79925537 14.43696976 25.14882469
66.43688965 0.07169342041 1.147920132
66.35897827 0.3004226685 2.258176088
66.33296967 0.2080688477 2.143196583
66.30896759 0.169380188 2.263209343
66.34975433 0.2932891846 1.844384551
62.58304596 7.085227966 16.35569382
58.11364365 11.42610168 31.02541161
57.27662659 13.16919327 30.91418457
66.2190094 -0.04483795166 2.014090061
66.29779816 0.161239624 1.410256386
66.33765411 0.3166351318 1.409133792
65.99247742 -0.4700469971 1.420272589
66.18426514 -0.1144104004 1.709064245
59.4730072 14.92338943 27.41777992
66.24084473 0.001441955566 1.412349105
66.31173706 0.1981735229 1.69715178
66.27235413 0.09924316406 1.550491929
66.25434113 0.04362487793 1.703772187
66.2330246 0.03206634521 2.273696899
59.07163239 14.4814415 27.6074543
66.25648499 0.1428070068 2.355857372
62.43706512 7.675537109 16.76182365
66.13440704 -0.190322876 2.020404339
58.27141953 14.62393951 17.38743782
66.18906403 -0.07763671875 2.157803535
59.37799072 13.20307159 27.35957336
66.07427979 -0.1278610229 2.37539649
57.61426926 13.64560318 31.02203751
65.88551331 -0.6002655029 1.423346162
65.81746674 -0.6398696899 1.720661163
59.03252411 13.94255066 29.14813614
66.07463837 -0.3025665283 1.871204734
65.69584656 -0.53540802 2.392562389
58.70169067 14.49914932 28.3841629
65.75967407 -0.5636825562 2.291943789
58.79904938 14.27240372 13.06042576
65.6650238 -0.622795105 2.294570208
59.87589645 14.3169136 26.72629356
59.1875 8.275611877 24.26231956
65.95178986 -0.3654327393 2.290704012
65.85540009 -0.4764328003 2.290312767
65.88098145 -0.3796005249 2.378309965
65.75079346 -0.6537857056 2.027187109
65.80976868 -0.5705184937 2.168834209
66.04192352 -0.3283462524 2.024888039
62.97537994 7.553630829 16.88865089
65.56668854 0.737739563 2.62119627
61.51281357 5.526180267 17.15955925
65.79430389 0.7043762207 2.627993822
65.77253723 0.8331985474 2.615177631
58.78294373 14.50364304 26.18532562
59.12969208 13.80504608 25.96610832
65.46357727 0.3705444336 2.64093256
60.53992081 5.981357574 17.35037804
65.59480286 0.5991363525 2.637552023
60.08308411 15.06458282 24.1540947
66.17716217 0.3155136108 2.48450613
59.76576996 14.95811462 24.82482719
66.27629089 0.3984222412 2.443948746
63.03620148 0.5964126587 3.029292822
66.06491852 0.6125564575 2.577107191
58.7486496 14.48598862 30.20172882
58.26580048 14.72161865 17.25621033
66.06214905 0.4596099854 2.560651541
59.56371689 13.23252106 30.56482506
58.89276886 12.84197617 17.45386887
65.61244965 -0.4920730591 2.460266113
62.8593483 6.464565277 16.15304756
58.55574036 14.76843643 22.4105854
62.42329025 1.25151825 3.92571187
65.70243835 -0.4377593994 2.462658644
56.62007141 13.45753479 30.23729134
65.64816284 0.08531951904 2.611714363
64.82800293 -0.6361083984 1.428804278
63.15483093 7.418766022 16.98660469
65.68397522 -0.1979827881 2.555841208
59.82226181 15.03992081 27.36316109
65.79402924 -0.2907867432 2.48727417
60.55714417 11.61803818 29.52368736
64.43942261 4.834335327 5.397485256
59.05626678 13.69047165 30.63712692
65.88833618 -0.1465988159 2.495778084
65.87106323 0.113067627 2.568198919
61.33599854 10.26647186 21.62952995
66.27250671 0.8783798218 2.378638268
58.68810272 14.64492798 26.01960754
66.16194153 0.9382247925 2.422050476
66.2434082 0.7987136841 2.459182739
55.66560745 13.38911438 15.88891315
59.67126465 3.457546234 5.628941059
66.20503235 0.8778991699 2.438285351
60.69246674 9.561920166 16.43168068
63.05338287 7.127292633 19.68728638
60.14958954 15.21195221 26.92133331
57.43920135 12.78077698 30.97038651
66.32843781 0.7660675049 2.383528709
59.20545197 13.8095932 30.21624947
66.02777863 1.007614136 2.399017334
59.63986969 13.1317482 30.62881088
65.69127655 -0.8753128052 2.433446884
62.21815491 5.552288055 17.49646187
58.85468292 8.811626434 25.0023098
65.96199799 1.008171082 2.469070673
58.83287048 13.72134018 15.33150864
66.03874207 0.762512207 2.583883047
59.78729248 14.66734314 27.3869915
59.03484726 13.68560028 20.35132217
66.27384186 0.6246032715 2.472269535
58.05651855 14.62135696 25.24002266
66.26173401 0.7213058472 2.474056721
65.49729919 1.126037598 2.455310345
65.86940765 1.031074524 2.491894245
59.12992859 13.64925385 24.47465897
64.67477417 -0.4360656738 1.716333032
57.77531433 14.34562302 22.65124512
65.76184845 1.038749695 2.521340609
65.791008 1.073951721 2.444648743
65.84989166 0.9013061523 2.590768814
61.2449646 10.5117569 22.28929329
66.12232971 0.8455352783 2.519075871
65.99103546 0.8846435547 2.560773611
65.94284058 0.9806671143 2.514975071
58.30072021 4.479972839 6.728656769
66.14055634 1.425170898 4.546348572
58.69955444 14.12763977 12.87383652
66.20479584 0.8375473022 1.640692592
66.19834137 0.8607330322 1.821374774
56.83445358 13.15257645 30.69523811
66.10219574 0.9184951782 1.772192359
63.29599762 6.266700745 17.55040932
58.15950012 11.60760498 31.17013741
66.0017395 0.9868927002 1.888911366
59.76869202 12.13676834 30.98480034
66.19261932 0.9342727661 2.332517862
60.42835236 11.4937706 24.04467583
66.25588226 0.8964614868 2.35470891
57.78505707 13.69858932 31.0283699
66.18566895 0.9282226563 2.250738859
53.90164948 7.277137756 10.61178589
65.46089172 1.165664673 2.386960268
65.91517639 1.036247253 1.988410473
65.89157867 1.058830261 2.297396898
62.28852844 5.5844841 17.21200752
65.99829102 1.00213623 2.039499283
66.29734039 0.853012085 2.339638472
59.0029068 13.93325043 28.7376194
63.96276474 3.28692627 11.20804119
66.31735229 0.8069229126 2.186743021
66.31044769 0.8304901123 2.271566153
60.19546509 14.84384155 24.60680962
66.33133698 0.7971038818 2.335371256
60.20632935 15.0474968 26.75003624
66.35371399 0.7350082397 2.343734026
66.36595917 0.5981750488 1.734675765
59.10727692 3.792434692 5.85984087
58.8497467 13.77651215 18.2400322
65.86987305 -0.5881271362 2.970342398
66.33011627 0.7134094238 1.820370317
66.32283783 0.7591400146 2.008226156
62.76672363 8.013908386 21.08400917
66.37260437 0.6496276855 2.325749397
66.38618469 0.535194397 2.272394419
62.17301178 5.488422394 16.98358345
59.70801163 12.87051392 30.82118225
66.39333344 0.5150146484 2.062169313
59.07109451 14.33959579 26.40924454
66.35735321 0.7115402222 2.106127501
66.37387085 0.6767349243 2.219011307
65.60890198 -0.6939315796 2.170434952
65.68281555 -0.7185134888 1.875580788
65.64817047 -0.7133331299 2.026592493
63.34176254 6.167217255 17.23251343
65.43501282 -0.7558746338 2.029662371
65.47213745 -0.7839279175 1.875433922
65.77626038 -0.6980133057 1.427069902
64.28994751 17.65955734 12.31233025
63.13999176 6.218551636 16.78182602
65.5652771 -0.809753418 1.433686018
65.74506378 -0.7083206177 1.569020271
65.14750671 -0.8127975464 1.43374145
62.53231049 8.790790558 21.56445885
65.25450134 -0.8352279663 1.434522271
65.40026855 -0.8086624146 1.721193194
65.32775879 -0.8239822388 1.571454048
61.759758 5.57907486 16.54303932
65.29408264 -0.8026046753 1.721245646
65.35884857 -0.842376709 1.435028791
65.50531006 -0.796257019 1.721122384
57.28498077 13.29764175 30.96876144
61.79204559 5.474708557 17.23609734
65.53347015 -0.5637969971 2.407236099
65.32687378 -0.7435531616 2.031626225
65.35575104 -0.6158752441 2.31420207
65.2461319 -0.5906295776 2.316866875
65.03895569 -0.7719497681 1.432338476
64.47648621 -0.4099884033 1.235249877
58.19317245 14.72005463 19.52812195
65.03834534 -0.7037353516 1.874815822
65.18618774 -0.7799911499 1.72081244
58.10971451 14.64897156 21.13926506
57.96353531 13.2301712 15.51054859
59.04596329 11.01348114 30.64016342
65.2572403 -0.7688751221 1.876883626
64.88232422 -0.4148254395 2.400061846
60.56923294 6.084270477 17.22734261
64.91966248 -0.5139923096 2.301207781
64.82263947 -0.4676818848 2.291125059
65.09501648 -0.4542160034 2.425166368
64.8923645 -0.6036300659 2.02407527
64.81754303 1.640861511 7.634420395
65.21777344 -0.719329834 2.032191753
65.10783386 -0.6899032593 2.030960798
65.17692566 -0.6531295776 2.180927277
61.85347366 1.753562927 3.938267708
64.86706543 -0.7622070313 1.226262331
64.9582901 -0.7626647949 1.315721035
64.74840546 -0.6111526489 1.312828302
63.07292175 6.085479736 16.77918243
64.75933075 -0.6877288818 1.225399017
64.65833282 -0.603515625 1.226098299
57.50163269 12.96244049 16.45708656
64.31066132 -0.9036407471 1.193534374
61.87764359 5.522865295 17.45999336
59.75189972 15.22224045 24.4805584
64.37567139 -0.8796005249 1.147085667
63.71691132 17.21419907 14.37869358
63.06202698 5.946578979 14.9360199
64.37433624 -0.7747192383 1.126611352
59.09101105 13.70326996 23.65261841
64.46125031 -0.8499450684 1.118883371
64.33007813 -0.1933059692 1.270383596
65.15576935 -1.110702515 2.074340582
64.55921936 -0.4176712036 1.316902995
64.31784058 -0.4568786621 1.167302608
64.39285278 -0.4247207642 1.186348796
64.48217773 16.65801239 13.06987286
59.34275818 7.879844666 22.96516037
64.38536835 -0.5456771851 1.147274256
64.56184387 -0.6129074097 1.168844104
64.19125366 0.09592437744 1.361631393
64.70098877 14.97172928 10.28060818
64.16475677 -0.3634109497 1.217938781
64.17137146 -0.2225723267 1.248142123
63.96600342 0.257232666 1.43184042
64.04191589 0.02695465088 1.343648076
62.17955017 7.30330658 15.98768234
61.10274506 9.08921051 25.59960938
63.91577148 0.1124038696 1.407199025
65.19281769 -1.026039124 2.392674446
64.20225525 -0.8371505737 1.271417022
64.17160034 -0.7311096191 1.235517502
63.90491486 -0.329750061 1.368856192
60.0140152 14.93106079 26.64150238
57.48705673 14.27216339 24.60487556
61.89517593 10.10982895 8.996343613
64.03424835 -0.5361557007 1.295994759
58.57852936 13.98447037 30.94457436
56.74819183 13.83885956 28.6033802
63.92638779 -0.4531402588 1.391435146
64.15956879 -0.6168518066 1.212023139
57.96110916 14.54102707 29.48427582
63.40203857 0.4927444458 1.796699524
59.70875931 14.72443008 27.40238571
63.77979279 0.2075271606 1.492262959
63.65896988 0.2952957153 1.581341624
63.72557831 0.4292068481 1.583698273
59.48561859 13.30372238 30.64115715
60.01446152 15.28510666 27.11634827
63.63858795 0.1469345093 1.574008465
59.08220291 15.18070221 14.49983311
61.46888733 10.78303909 24.12256241
59.81531143 14.82143402 24.07841873
64.02547455 -0.275177002 1.286701083
59.42903137 14.51717758 27.44904709
58.33610535 13.5435524 18.31112862
61.46488953 10.58095169 26.09950256
63.89661407 -0.1895675659 1.368694544
58.58395386 14.5236702 30.52298546
64.92170715 -1.079589844 2.371409416
64.73040771 -1.071220398 2.481701374
57.39216995 12.02914047 30.0188427
65.03966522 -1.098381042 2.229011774
58.09719086 10.62303162 24.83915138
65.34926605 -0.9403839111 2.547905207
63.3908844 7.150867462 17.46828651
65.44321442 -0.9582672119 2.411484003
65.49201202 -1.096298218 1.597426891
57.76195526 13.56998825 31.00758553
65.775177 -0.9481124878 1.924710751
62.02465439 7.949001312 16.95245552
57.13869858 12.59686279 30.53852272
65.3836441 -1.111419678 1.752686739
65.27107239 -1.115196228 1.913584352
59.01389313 8.429042816 23.0830574
58.451828 14.63886642 29.53058434
59.63114166 14.78775406 27.41408539
59.07151794 15.1089592 14.94578457
66.21805573 -0.5788955688 2.678241253
59.00708771 15.01769638 24.61871147
66.15499878 -0.6757659912 2.484622717
66.04894257 -0.7707366943 2.290265799
62.82563019 5.779972076 16.95477486
58.72839355 13.24278641 15.26524067
65.91845703 -0.8615341187 2.103132963
65.41085815 -1.045227051 2.083881617
65.55587769 -0.9637985229 2.25770402
64.94418335 -0.9995956421 2.612480879
64.61995697 -1.04763031 2.57416296
51.08478546 9.747360229 11.96418095
65.47042847 -0.8502731323 2.695736408
62.79326248 5.775081635 16.89353371
60.57826233 5.926021576 17.42199326
65.29969025 -0.9046020508 2.668320894
62.94399261 5.729698181 7.08957386
64.98568726 -0.8877182007 2.822092056
59.31586456 11.56414795 31.29204369
58.02156067 13.92418289 21.21904373
65.18955231 -0.8831481934 2.764176607
65.29478455 -0.7870407104 2.898144245
66.04626465 -0.5979919434 2.815453529
65.67338562 -0.5123519897 3.219445944
61.68859482 8.344486237 17.41165161
60.02104568 14.3929863 24.71336746
65.6374588 -0.09773254395 3.985416889
65.30945587 -0.5600585938 3.243579149
63.99630737 0.7061691284 1.659237385
63.89809418 6.029563904 5.942381859
65.21739197 -0.3187103271 3.63852334
65.31809235 -0.6287307739 3.138967276
65.52603149 -0.4669418335 3.357679129
65.54493713 -0.7615356445 2.837887049
62.13926697 5.364967346 17.66813278
65.56655884 -0.6786270142 2.977830172
62.79555893 1.088470459 3.315168142
60.96456909 6.115074158 16.89636612
59.06807327 13.62676239 20.36521339
62.87986755 1.04234314 3.249186754
62.64053345 1.12348938 3.41233778
62.66941071 1.131507874 3.409269571
59.06659698 14.60939407 15.93032551
62.52006149 1.22303772 3.478027582
59.89422607 8.333950043 16.79891396
62.46385956 1.336997986 3.621669054
58.79090118 14.25409317 25.87410736
61.41397858 5.413352966 17.83864784
62.59310532 1.218971252 3.511252165
62.63260269 7.469272614 16.69317627
62.11002731 4.9282341 11.35122776
62.7856636 0.7520828247 3.108137846
63.23465729 0.4886932373 3.087722778
63.47473145 0.03272247314 1.774755359
63.14750671 0.5416412354 3.054283619
60.10899734 14.46989059 24.69348717
59.06105804 14.51601028 14.07184887
62.88550186 0.7795562744 3.168663502
62.94354248 0.8347396851 3.485022068
62.53478241 1.228858948 3.65295887
62.54616547 7.682121277 16.781353
61.14162445 6.968200684 21.89469719
63.16411591 0.6036453247 3.216680765
62.8242569 0.9425201416 3.342701912
61.34273911 2.089122772 4.731783867
63.24627686 6.086204529 16.93139458
58.81377029 11.1354599 30.83264542
61.88417053 1.690353394 4.297047138
53.64105225 7.877670288 9.754098892
54.88576126 6.98532486 8.94502449
62.07410049 4.428447723 7.274355888
58.05943298 14.09764481 15.67079067
64.49465942 17.73693848 12.53313446
59.06918335 3.881877899 5.989860535
58.76813126 14.47116089 30.30822563
62.06985474 5.546108246 17.27964592
57.27472305 5.211032867 7.251646519
58.6059494 12.47554016 31.5696888
62.97218704 5.166469574 15.36402702
58.02050018 4.637298584 6.680405617
61.7754631 9.480781555 19.87757301
58.31656647 10.12558365 28.82490349
57.59223175 5.009147644 7.170773983
60.21619034 14.97244263 24.2586956
62.64259338 1.227134705 3.418342113
59.19121552 13.67751312 26.44468117
61.96914673 1.735588074 3.970146656
63.38832092 7.046100616 17.96683121
61.43659973 2.134899139 4.321146011
58.99436951 13.99948883 30.65645981
59.0149498 3.950519562 6.152947903
64.21685791 3.955459595 8.760428429
60.39546204 2.918453217 5.163750648
51.56906891 9.585639954 11.91085243
52.78205872 8.663467407 10.87014771
59.68489456 15.17339325 26.74856377
52.4974823 8.89308548 11.15883827
52.02526093 9.227619171 11.44447231
52.82631683 8.549789429 10.52300358
63.40997696 6.906078339 17.73894691
59.42288208 13.2485466 31.02520561
54.81212616 7.103725433 9.250979424
54.24361801 7.522930145 9.611430168
60.51883316 5.844287872 17.82191849
52.57721329 8.772838593 10.85113621
53.35218048 8.195186615 10.27619171
59.03424835 3.866718292 6.406415939
55.28465652 6.761310577 9.157702446
56.94469452 5.477588654 7.935124874
58.72839355 13.81351471 30.86423683
60.26644897 14.85136032 26.89705849
59.23278809 15.04748917 26.6626091
56.33779907 5.955753326 8.245299339
53.70399475 7.961650848 10.16668129
55.19993591 6.822849274 9.068647385
59.0655899 13.18774414 24.53099823
54.51232147 7.355880737 9.654098511
59.75450897 15.37487793 14.9893074
51.91676331 8.784603119 12.16684437
53.94746399 7.275943756 10.7533865
54.56411743 6.848545074 9.969511986
54.95835114 6.516277313 9.703374863
60.43508148 2.327388763 5.817279816
60.09629059 13.10479355 30.87858772
55.8653183 5.81362915 9.301261902
57.98038483 4.1979599 7.69044733
56.97840881 5.01776886 8.534013748
61.20190048 8.66550827 15.60394859
59.22116089 3.230514526 6.67330265
61.66603088 16.46859741 14.43096161
63.2500267 6.369125366 18.12927055
57.87303925 4.25315094 7.631102085
59.74370193 13.44810486 29.87787056
51.57458115 9.561508179 11.84951115
57.62150955 14.53759384 13.37899971
51.05900574 9.748085022 12.08194828
63.37182999 7.160690308 17.18906784
58.07429886 14.52593994 18.42234421
59.16756821 14.11126328 24.89403915
51.07338715 9.752475739 12.02629852
51.11008453 9.739173889 12.05785275
65.94668579 0.1196746826 4.169016361
51.16321564 9.726787567 12.05141735
51.22850418 9.665691376 11.79608727
62.91860199 5.814842224 17.47828865
51.29423904 9.665027618 11.91199493
51.53974915 9.52009201 11.69848061
63.61551666 5.366298676 5.817175388
64.82933044 -0.5807952881 1.869809389
60.53539276 2.750465393 4.882084846
62.05941391 1.548355103 3.755479813
57.33753204 5.059120178 7.028318882
56.85776138 5.462158203 7.425949097
61.66017151 5.469764709 17.0867157
61.49066925 1.787612915 4.00114584
62.09535217 1.40511322 3.649854422
59.36540222 3.522743225 5.587771416
63.19044876 6.015605927 17.30420113
60.53453827 2.676490784 4.800481319
63.65797806 -0.2179794312 1.663599849
64.42082977 1.21647644 2.451727629
62.19416046 1.052024841 2.996646881
64.50668335 1.614479065 2.647928476
62.42064667 0.8569412231 2.943025827
66.22902679 0.2229232788 4.089156151
60.66196823 8.567527771 25.26955223
58.09368134 13.72428894 21.95269394
63.03240967 0.3161849976 2.580985785
58.04748917 12.14361954 31.48976517
63.28870392 0.3004608154 1.900997758
63.93065643 4.387001038 11.67136097
63.32541656 0.07614898682 1.993340135
58.48035812 14.77172089 24.0967865
63.59111404 0.6293640137 1.740597486
63.72386551 0.6497344971 1.703077435
63.82348251 0.4543228149 1.55499649
64.11750793 0.7398910522 1.654438972
64.1578064 0.2104568481 1.398566365
64.14131165 0.3291854858 1.439646363
61.98813629 5.488986969 17.19893837
60.49398804 5.924991608 17.50469971
59.26034546 13.8171463 29.95259285
59.15003204 13.86547852 24.55245972
63.95489502 0.5988311768 1.597607017
64.04788208 0.5210342407 1.529487848
63.38322449 7.098423004 17.33660698
63.93056488 0.4880599976 1.5400877
64.76216125 -0.4648132324 2.161705017
64.70536041 -0.4286956787 2.019087553
57.38010406 12.18416214 30.91307259
64.93173218 -0.712020874 1.430419445
64.72867584 -0.5474472046 1.428396463
61.7877121 8.01361084 16.58609009
58.8649826 13.08994675 31.35105705
64.86526489 -0.6266555786 1.716267943
64.46585846 -0.2174301147 1.442237735
53.2319603 8.937698364 12.09178162
64.59118652 -0.3204421997 1.720043778
60.24688721 14.85565948 26.73924828
64.53029633 -0.2653427124 1.574166059
58.9266243 12.85310745 22.59843445
64.54553986 -0.3376693726 1.434262872
58.58691406 13.88579559 30.91931915
58.99983215 14.01276398 28.32193947
64.63424683 -0.4476013184 1.429959536
64.7670517 -0.5388641357 1.71529603
64.70272827 -0.4911117554 1.565989971
64.94166565 -0.3082275391 2.487250566
65.2335968 0.4407196045 2.6248281
59.81282043 15.24655151 27.29602242
65.50926208 -0.4511795044 2.49003911
65.2793808 -0.3513641357 2.515113354
58.76623535 14.32257462 25.9865818
65.40419006 -0.435508728 2.492609024
65.1963501 0.03783416748 2.608133793
65.30675507 0.02186584473 2.6133883
63.50122452 2.157791138 3.087444544
64.15106964 1.443443298 2.522744417
63.48390198 2.415634155 3.232834578
57.8937645 13.56298828 22.51903343
59.56853867 13.11905289 30.83737564
64.58447266 1.054916382 2.442222118
64.5091629 1.126296997 2.441041231
64.58187866 1.172515869 2.475868702
64.5928421 1.28162384 2.509291172
65.75852203 4.964069366 4.537407398
63.91182327 1.875213623 2.863255739
62.27476883 6.659397125 10.14679813
64.22505188 1.638381958 2.702379704
64.23245239 5.130710602 4.373023033
62.56901932 8.43119812 21.88148499
59.55643463 11.80460739 11.24626541
63.7970314 8.516082764 6.410531044
64.8355484 4.711471558 3.888443947
63.63154602 14.78408813 10.2603054
63.63891602 13.26939774 9.28823185
62.71253967 2.811950684 6.157754421
59.07839966 12.90584183 24.6782341
64.76620483 9.231178284 6.481724262
63.13611603 6.377124786 16.73992157
64.65409851 10.76885223 7.43884182
63.70103073 10.02258301 7.311728001
65.78458405 4.512752533 3.380662203
59.52565384 13.38663864 30.52562332
65.30179596 5.06640625 3.881067276
65.56638336 4.45905304 3.418138742
64.47763824 8.213527679 5.993377209
64.82159424 8.170742035 5.842442036
58.82400894 14.96449661 26.85892487
65.9974823 1.000793457 1.610763788
65.97903442 1.056266785 1.518220782
61.79071045 7.895805359 22.86842155
65.4235611 1.204978943 2.311117887
65.45146179 1.262168884 2.038867474
65.57344055 1.170555115 2.127113104
65.74564362 1.117950439 1.917211413
65.51091766 1.343841553 1.694323897
61.36808777 8.364177704 15.29035664
65.73846436 1.227119446 1.597620487
58.43401337 14.82595825 24.64206886
58.26461029 14.76457977 22.38985062
65.64000702 1.289321899 1.625069022
65.46094513 1.288612366 1.919317126
59.2219696 14.03158188 23.70441437
65.77848816 1.164993286 1.642098427
66.94399261 0.3131713867 1.190744519
62.73061371 3.763114929 10.09380817
58.87919617 11.2236557 30.94210434
66.87023163 0.3633956909 1.139182806
66.5008316 0.750038147 1.189115882
58.90646362 14.22902679 29.57507324
66.58491516 0.7730712891 1.151955247
66.59561157 0.6579360962 1.14096117
57.51377106 13.3596611 30.99071121
66.69232178 0.5137252808 1.114963531
66.78787994 1.114746094 1.308534861
66.76292419 1.040977478 1.206671476
57.13330078 12.73630524 13.76619244
66.74710846 0.8175430298 1.141097307
58.14014435 13.57746887 31.0343132
58.82045746 14.01455688 30.86977577
66.84606934 0.699836731 1.160472631
57.07392502 12.53881073 29.40561676
64.45948029 16.21186829 11.00644493
60.11742783 13.06794739 30.75728989
64.34203339 16.9771347 11.58672428
62.39417267 5.474700928 17.65816879
63.20918274 5.985912323 17.09198189
58.59559631 14.83520889 24.40950775
64.42763519 13.95573425 9.49604702
65.19688416 10.91864395 7.53439045
58.07930374 14.34880066 30.67279053
64.83170319 13.90063095 9.558115005
65.64169312 6.272853851 4.492166519
62.32733917 5.48323822 18.15246582
65.46466064 8.334308624 5.842149258
64.88845825 13.29153061 9.030030251
65.09413147 11.75687027 8.031801224
57.99406052 14.5294075 21.07430458
65.29639435 8.713737488 6.78584528
64.6233139 13.83608246 10.12099552
58.5039444 9.507648468 26.42360115
65.28195953 8.566490173 6.85598278
65.05635834 10.34877014 7.940052509
60.82363892 5.806201935 18.6518116
59.22008514 13.59630966 30.50433159
59.11956787 13.9098053 30.31691551
64.9434967 11.30412674 8.496919632
57.7517128 13.65888977 22.60062599
65.78129578 4.757724762 4.467800617
57.28794098 13.42458725 31.00255966
60.25536346 15.05967331 26.90160751
65.63401794 5.815376282 5.185983181
62.21100998 7.053733826 15.07309628
65.33019257 8.34380722 6.600295544
57.24288177 13.84347534 30.75687981
65.41428375 7.562156677 6.185043812
60.87049484 11.74953842 28.09884644
65.55582428 6.544158936 5.499972343
58.26132965 14.76545334 22.61864281
62.90616608 5.825122833 16.74571609
55.85341644 13.41621017 12.92096138
58.81126785 13.75303268 13.6807375
65.5904007 6.627819061 5.851530552
65.03031921 11.65470886 8.943712234
62.769104 7.210853577 16.59114647
63.2841568 5.256233215 7.452540874
64.47341156 15.08427811 10.91281223
64.46699524 15.64694595 11.2900095
64.52881622 14.80263138 10.76545238
64.59490967 14.24087143 10.41859055
64.89247131 12.01831436 9.07023716
64.70478821 14.39731598 10.59004307
57.15503693 14.11577988 25.65665436
58.1314888 14.62403107 27.76485062
64.51720428 15.91846085 11.49024296
64.44064331 16.2460289 11.66434956
63.54522324 5.040103912 13.18372059
64.83931732 12.85733032 9.625494957
59.20131683 11.90781021 31.52768898
66.34092712 2.050235748 2.904025316
66.48082733 1.7003479 2.741146803
66.89285278 0.6701278687 2.467192888
58.28173065 13.36148071 17.20623589
63.82342911 17.03927612 13.77099419
66.83476257 0.8838653564 2.166249037
66.86608124 0.7630844116 2.32847333
66.72867584 1.268615723 1.700657487
66.67617798 1.331726074 1.86319375
66.76621246 1.140083313 1.837221146
58.46580887 14.31305695 30.79386139
58.82197571 14.32300186 12.93828487
66.80161285 1.010482788 1.997162223
66.67763519 1.221611023 2.388273239
66.74090576 1.103637695 2.192658186
61.69971466 5.441131592 17.1295166
58.55686569 14.61146545 30.18207932
59.52435303 14.22703552 24.84365082
59.22813416 12.35222626 24.23526382
66.65018463 1.307678223 2.200689316
66.94148254 0.2982254028 2.716803789
60.20340729 14.81149673 26.68704987
56.51289749 13.54491043 28.28024483
62.72204208 7.154930115 20.40159988
66.74266052 0.6306838989 3.171504021
58.69617462 14.4908371 25.26494408
66.35477448 1.107658386 3.981407642
59.75165558 11.14975739 16.48639679
60.55082703 6.279865265 17.08707047
66.48414612 0.66065979 3.663475513
60.00577545 12.48984909 30.78756905
66.33956909 0.6908569336 4.060965538
56.48667908 13.89515305 13.40894222
66.48410797 0.9850769043 3.686034441
66.86390686 -0.1349029541 2.67932415
60.28249741 14.70347977 24.31415558
66.74452209 -0.17943573 2.815559864
58.56056976 13.76026917 12.49380875
66.62203979 0.1204299927 3.245350838
63.27864075 6.412635803 16.86805725
66.74350739 0.3614196777 3.1033566
66.73479462 0.1747894287 3.065474987
60.24954224 12.42752838 30.6384201
66.82103729 0.08186340332 2.885156393
61.09121704 6.397327423 8.541347504
65.86881256 1.571044922 5.412578106
63.21999741 6.246959686 17.91988945
63.84381485 16.91065216 13.55641365
65.17020416 2.247219086 7.784639835
59.62815094 13.28344727 30.60596275
59.11607742 13.93327332 30.06127548
66.00983429 1.180854797 5.044402599
63.55633545 4.368801117 13.37478924
63.18195343 5.019695282 14.84327888
64.74872589 2.511268616 9.172329903
58.50127411 11.76120377 31.44438171
64.24442291 3.281742096 10.90499878
58.23304749 11.04980469 30.74062157
64.6975174 2.813350677 9.4109478
66.12969971 0.5269699097 4.602805614
65.29130554 1.538513184 7.138875484
65.05563354 2.045650482 8.131093979
64.97337341 2.373134613 8.488678932
62.55435181 4.861515045 14.81741047
62.11900711 5.402862549 16.04475594
63.10919952 4.143501282 13.2118063
63.05852509 7.351455688 16.88784027
58.9938736 12.38463211 31.59610939
62.67394257 4.984828949 15.09280491
62.92409515 4.498809814 14.00263405
58.61743164 13.14380264 31.32185364
62.91785812 4.670158386 14.37434578
57.61257935 11.71043396 30.77256966
64.71153259 2.289867401 8.905008316
64.99989319 1.781539917 7.794551849
58.77742767 14.76853943 16.40695381
64.39099121 2.395298004 9.277451515
62.92507172 5.829494476 16.94209099
62.42326736 5.635822296 16.67238426
62.86624908 5.810592651 16.80820274
63.04675293 6.744697571 16.66804504
62.7482605 5.757759094 16.80796242
62.70489502 5.71288681 16.68282509
62.15455246 5.515735626 16.35501099
59.47848892 13.96934509 26.87916946
61.9984169 5.558418274 16.50638771
62.55657959 5.303527832 15.8170929
62.21517563 5.596000671 16.65023041
62.86742783 5.505924225 16.07813454
62.8470726 5.390914917 15.88888645
62.751091 5.588420868 16.35466385
62.45184326 5.620128632 16.58973312
62.99327469 6.21881485 16.50115013
63.02638245 5.98746109 16.6667881
63.01487732 6.033008575 16.49073601
64.27560425 4.44235611 5.272070885
63.02492905 5.909954071 16.16795158
63.03323364 5.74792099 15.99466515
62.95635223 5.859447479 16.89441681
62.92866898 5.8477211 16.82506561
63.16540527 5.317897797 15.16085625
62.87483215 5.71554184 16.45666313
62.986866 5.886394501 16.58800125
62.93696594 5.803455353 16.53746605
63.29774475 6.221931458 16.90197182
63.25856781 6.177963257 16.88220596
63.26876068 6.238559723 16.86515427
63.23710251 6.115100861 16.89909935
63.1889267 5.992134094 16.97077179
58.52203751 14.51823807 20.77475357
63.177948 6.017604828 16.92460442
62.98171616 6.289230347 16.52132034
63.08547974 6.241149902 16.72535706
63.04030609 6.3176651 16.65971375
63.03399658 6.191387177 16.65094948
63.19097519 6.105670929 17.99161911
62.46860886 3.207416534 6.062490463
63.16688919 6.050598145 16.8892498
63.13146973 6.145336151 16.80801773
57.55479813 12.9473877 19.54743004
62.68645096 7.046653748 16.42288971
62.8376236 6.86416626 16.49300194
62.94238281 6.804450989 16.57989693
57.89585495 12.12674713 31.43317032
62.84843445 5.749107361 17.54427147
62.72439575 6.860809326 16.35588264
62.77965546 6.864822388 16.42973137
62.78936386 6.786376953 16.3952179
63.20432281 6.354557037 16.79486465
62.46077728 8.327243805 22.22252464
63.28033447 6.321807861 16.86284637
63.13944244 6.540054321 16.73893166
57.22388458 12.55846786 30.84185219
63.12986755 6.466648102 16.72984695
63.05878448 6.57276535 16.6671505
62.89926529 6.412033081 16.27197456
63.01485443 5.957107544 18.12179756
62.21480942 8.919822693 18.93745804
58.08131409 14.02997971 19.36772728
62.92766571 6.422733307 16.43787575
62.8660965 6.563327789 16.3762722
61.0173645 5.694034576 18.52986145
63.06168747 7.489772797 19.79802895
58.70030212 10.44455719 10.68876171
60.26319122 6.202392578 17.03173065
62.81061554 6.632995605 16.28853226
58.66067505 12.35206223 31.60256958
62.97701645 6.609062195 16.59039307
56.48226166 13.78387451 15.53966236
62.00669861 5.283939362 17.77625084
62.92451096 6.3098526 16.03807831
62.73407745 6.558746338 15.77730942
62.8105545 6.488517761 15.93302345
57.08100128 13.17935944 30.90560341
62.88094711 6.279388428 15.41390705
62.80224609 6.589168549 16.1803112
62.73873138 6.709877014 16.1916275
53.92913818 11.98098373 13.44310665
62.04237747 7.333847046 15.38928223
60.1948967 14.99318314 27.23420525
60.75347137 6.180027008 17.13047791
60.08509445 15.19634247 26.78165054
59.87594604 14.28898621 26.99925041
62.34656906 7.116466522 16.03025627
57.66370392 11.6170845 30.72092438
59.11472321 14.63251114 27.53636551
62.30319977 7.081897736 15.77977467
61.5536232 5.36914444 17.70583725
62.72037506 6.409912109 15.00728416
62.31802368 7.292800903 16.28220177
62.37081528 7.179737091 16.21126938
62.53961945 6.882545471 16.00868416
62.64461517 6.796257019 16.09505272
61.88217545 7.611103058 15.64728642
57.13381577 13.43763351 30.93511009
57.67047501 14.4064827 28.61327744
61.61581802 8.091957092 16.04020309
61.74259186 7.861984253 15.85766506
60.26720047 15.40281677 13.01378345
61.48729706 8.227088928 15.7380724
60.55939484 11.75976563 25.18813515
61.97515488 7.554157257 15.93940926
62.10294724 7.46516037 16.14415359
59.64987564 13.41171265 30.60977745
61.91530228 7.861312866 16.50173759
61.30944061 8.580265045 16.26504898
59.2586441 13.86712265 27.47975159
62.31635666 7.358283997 16.34513855
62.4617424 5.524986267 17.61431313
62.31066895 7.480331421 16.44934082
59.81657028 12.73423386 30.78005028
62.29962921 7.439426422 16.40205383
62.1585083 7.591098785 16.42111015
59.80279922 14.36958313 27.2736721
61.9854126 7.731193542 16.35536766
58.3597908 14.80311584 23.85743332
62.61215973 7.342533112 16.55319405
58.77371597 14.36693954 18.63995743
62.54688644 7.415679932 16.56906128
62.19037628 7.757015228 16.76255226
62.20278931 7.653015137 16.59152031
59.13672256 15.06326294 24.3778038
62.89903259 7.400611877 16.8153553
59.1182785 14.86496735 24.02256584
62.81672287 7.484851837 16.7930088
58.92663574 14.11562347 28.60848045
62.53491211 7.566272736 16.71510887
60.99383926 11.17398834 27.97889137
62.38226318 7.530826569 16.57224655
62.73131561 7.170570374 16.52579498
62.90631866 7.08499527 16.63749695
60.17097473 14.91165543 27.2787075
57.32469177 13.55798721 30.96467018
