# .PCD v0.7 - Point Cloud Data file format
VERSION 0.7
FIELDS x y z
SIZE 4 4 4
TYPE F F F
COUNT 1 1 1
WIDTH 1543
HEIGHT 1
VIEWPOINT 0 0 0 1 0 0 0
POINTS 1543
DATA ascii
0.1312698 0.04135897 0.6354596
0.1287809 0.04124478 0.6356133
0.1265217 0.01876792 0.6352642
0.1276628 0.02310921 0.6366116
0.1259878 0.02367113 0.6363722
0.1246276 0.02500022 0.6339018
0.1261477 0.02602871 0.6332297
0.1290473 0.02991933 0.6327276
0.1308098 0.03012023 0.6334046
0.1306266 0.04384476 0.6301504
0.1271864 0.04386975 0.6297654
0.1289706 0.04415682 0.6296893
0.1250547 0.0439277 0.6285444
0.124133 0.04436581 0.6276349
0.1448065 0.04755186 0.6225569
0.1256307 0.04456825 0.6269916
0.1258673 0.04355558 0.6295304
0.1250099 0.02805614 0.6331677
0.124818 0.02694341 0.6319091
0.1233588 0.02593296 0.6321335
0.1237268 0.02720742 0.6327758
0.124782 0.009625684 0.6325311
0.1277123 0.006357773 0.6276642
0.1275184 0.009893497 0.6340359
0.1312527 0.0147429 0.6296244
0.1274517 0.02720203 0.6331036
0.1336021 0.01457372 0.6301743
0.1325461 0.0150287 0.6297293
0.1336277 0.0120361 0.6303061
0.1300384 0.01439309 0.6294352
0.1297259 0.0437936 0.6313178
0.1302424 0.03190173 0.6341959
0.1300554 0.007140561 0.6278492
0.1307609 0.005702957 0.6283958
0.1302439 0.0443209 0.6288862
0.1370955 0.02676919 0.6335122
0.1333001 0.01593467 0.6300055
0.1313135 0.0433603 0.6315469
0.1344816 0.02123667 0.6319652
0.1314166 0.02925751 0.6340529
0.1307265 0.03333987 0.6342666
0.1305532 0.04351461 0.632814
0.1370466 0.03956947 0.6332473
0.1344501 0.04098117 0.6328813
0.1397146 0.04708567 0.6248696
0.1409452 0.04347583 0.6308109
0.1398111 0.04320139 0.6307159
0.1374778 0.04382801 0.6304439
0.138722 0.04487229 0.6293123
0.141764 0.04325891 0.6319548
0.1412273 0.04583265 0.6269385
0.1355502 0.04522983 0.6287698
0.1384013 0.04564319 0.6279969
0.1396295 0.04594661 0.6268492
0.1349029 0.04585997 0.6272209
0.1360308 0.04445274 0.6299184
0.1392042 0.04370578 0.6301197
0.1465914 0.04370718 0.6305044
0.1333489 0.04566824 0.6275163
0.1385548 0.04145814 0.6319388
0.134274 0.04248009 0.6321466
0.1356944 0.04150119 0.632066
0.141257 0.0409218 0.6321239
0.1383044 0.04792464 0.6219111
0.143391 0.04029531 0.6333233
0.1320338 0.04582773 0.6271167
0.1371127 0.04079488 0.6324353
0.1397932 0.04071633 0.6320304
0.1324333 0.03310331 0.6342347
0.1353427 0.03585747 0.6339591
0.1335744 0.03463386 0.6346738
0.1337551 0.03617407 0.6349655
0.1389876 0.03968033 0.6343462
0.140885 0.04011916 0.6346777
0.1555728 0.04256259 0.6335355
0.1464893 0.04246775 0.6344431
0.1478835 0.04310733 0.6315212
0.1518489 0.04392954 0.6308842
0.1483545 0.04403192 0.6300611
0.158192 0.04242172 0.6345748
0.1526571 0.04190083 0.6352476
0.1458361 0.04306757 0.6320361
0.1515201 0.04341032 0.6321246
0.1355844 0.04732569 0.6235429
0.1467862 0.04466724 0.6291759
0.1447646 0.04358451 0.630837
0.1644787 0.04682197 0.6267442
0.1466943 0.04562373 0.6276774
0.1499561 0.04358761 0.6314381
0.1727544 0.04488532 0.6310537
0.1714604 0.04541993 0.6297603
0.1451631 0.04507173 0.6283789
0.1441016 0.04429795 0.6294978
0.1619917 0.04416833 0.632232
0.1564796 0.04556619 0.6278555
0.174201 0.04405336 0.633285
0.1453482 0.04590214 0.6268401
0.1453532 0.0464077 0.6254868
0.1465891 0.04633006 0.6260111
0.1711208 0.04237825 0.6379072
0.1482148 0.04207655 0.6349787
0.148021 0.04599015 0.6267713
0.1463024 0.04703666 0.6241589
0.1478495 0.0466749 0.6250889
0.1686324 0.04315406 0.6351336
0.165537 0.04329389 0.6349986
0.1613653 0.04464378 0.6309387
0.1477021 0.04946099 0.61931
0.1557464 0.0469857 0.6255505
0.1543274 0.04729048 0.6250934
0.1575843 0.04509064 0.629177
0.1519407 0.04300777 0.6330051
0.1513724 0.04234462 0.6340072
0.1746404 0.04303163 0.6356054
0.1496204 0.04227936 0.6339317
0.1530109 0.0427149 0.6336359
0.172372 0.04207591 0.6378969
0.1502792 0.04179201 0.6355063
0.1733187 0.04153703 0.6385567
0.1606259 0.04106124 0.6383848
0.153376 0.04121981 0.6367851
0.1776513 0.0412329 0.6396165
0.1459918 0.04201649 0.6361585
0.1357188 0.03926088 0.6343094
0.140305 0.03979651 0.6331005
0.1426636 0.03974479 0.634437
0.1420889 0.03676934 0.639787
0.1466804 0.04180151 0.6376624
0.1417588 0.04014188 0.635685
0.1458108 0.04084106 0.6391481
0.1475674 0.04093333 0.6385474
0.1614297 0.04303346 0.6345352
0.1642694 0.04211894 0.6371525
0.1686708 0.04268316 0.6365926
0.1720436 0.04263001 0.6367531
0.166319 0.03873603 0.6440704
0.1732883 0.04275816 0.636053
0.1591289 0.04065109 0.6383924
0.1642613 0.04163185 0.6384416
0.1571782 0.04153483 0.6368214
0.1547302 0.04132302 0.6368211
0.1702765 0.04302347 0.6362835
0.1484105 0.04144007 0.6376008
0.1443078 0.03992636 0.63681
0.1416497 0.03709017 0.6361174
0.1403432 0.03440396 0.635285
0.1412023 0.0346433 0.6379899
0.1369892 0.03701234 0.63472
0.1357216 0.0380372 0.6363922
0.1382432 0.03382342 0.6350664
0.1405102 0.03597736 0.6356345
0.1349241 0.03688863 0.6355777
0.1355056 0.03385215 0.634378
0.1372525 0.03563984 0.6343838
0.1382886 0.03891469 0.6346264
0.1404207 0.03960326 0.6354867
0.1389961 0.0368561 0.6350546
0.1434093 0.04007396 0.6356036
0.1399496 0.03061126 0.6354915
0.1374548 0.02928872 0.6405225
0.139063 0.02829797 0.6347162
0.1332138 0.03136818 0.6336153
0.1371375 0.03095123 0.637181
0.1398056 0.03127541 0.6370705
0.1378517 0.02779941 0.6360298
0.1340357 0.01449163 0.6337608
0.1324256 0.01660461 0.6351937
0.1331063 0.02735301 0.6376601
0.1570442 0.0373173 0.6451136
0.1652796 0.03570567 0.6492351
0.132807 0.01523314 0.6344798
0.1364125 0.02166113 0.633066
0.1359549 0.01985758 0.6327816
0.1358756 0.0204552 0.6342226
0.1374709 0.02515658 0.6338332
0.1366923 0.02231477 0.6339407
0.1368977 0.02356752 0.6333824
0.1571349 0.0464952 0.6264191
0.1331551 0.02298188 0.6335328
0.1340843 0.01726351 0.6325645
0.1336639 0.01777461 0.6349908
0.1330429 0.01031436 0.6300451
0.1340104 0.01882032 0.6321259
0.1320212 0.009693433 0.6291108
0.1338093 0.01710633 0.6309376
0.1350977 0.01528854 0.6313654
0.1346851 0.01423711 0.6322589
0.1450703 0.05032516 0.6180128
0.1622472 0.05365084 0.6134723
0.1645532 0.05096172 0.6188344
0.1598996 0.04804677 0.6244553
0.1642608 0.04897815 0.6233181
0.1605452 0.04981991 0.6212131
0.157522 0.04760842 0.6247118
0.1635303 0.05154308 0.617743
0.154611 0.04661403 0.626111
0.1548767 0.04853369 0.6228182
0.1554625 0.04613683 0.6268335
0.1513657 0.04695825 0.6252197
0.1557534 0.0491001 0.6213924
0.1530807 0.04914755 0.6208292
0.1539101 0.04804595 0.6238343
0.1466648 0.04994147 0.6186793
0.1466461 0.04913801 0.6197448
0.1542201 0.04941433 0.6202274
0.1571053 0.04962466 0.6206869
0.1558789 0.05014848 0.619598
0.1524996 0.04955854 0.6195967
0.162188 0.05211673 0.6165192
0.1644013 0.05221143 0.6160277
0.1585316 0.05100749 0.6184878
0.1554412 0.05104788 0.617941
0.1569674 0.05239353 0.6164662
0.1325222 0.04869819 0.6201429
0.1507621 0.04903394 0.6203238
0.1447298 0.05104768 0.6166832
0.1435492 0.05106657 0.6157094
0.1595687 0.05238437 0.6162786
0.1605894 0.0518757 0.6169831
0.155225 0.05284139 0.6136776
0.1439432 0.05179026 0.6143044
0.1534217 0.05318918 0.6125144
0.1553161 0.05358718 0.6118166
0.1491672 0.05287774 0.6130267
0.1582402 0.05424266 0.6121582
0.1606815 0.05281374 0.6155127
0.1589838 0.05622093 0.6079919
0.159761 0.05564452 0.609295
0.1516988 0.05230351 0.6144803
0.1607344 0.05508273 0.6105984
0.1579425 0.0575682 0.6056285
0.1554425 0.0543945 0.6102734
0.1579488 0.0538463 0.6133296
0.1584616 0.05364215 0.6143522
0.158051 0.0555875 0.6090161
0.1568849 0.05506549 0.6098143
0.1537971 0.05405096 0.6108346
0.1555065 0.05520225 0.6089159
0.1506405 0.0535887 0.6119384
0.1509815 0.05287327 0.6133376
0.1507516 0.05004567 0.6184745
0.1490171 0.05368712 0.6110928
0.1483891 0.05153992 0.6166193
0.1501307 0.0524545 0.61462
0.1532692 0.05237037 0.6141443
0.147174 0.05181014 0.6161124
0.1465266 0.05208119 0.6150514
0.1544143 0.05207739 0.6153875
0.1526393 0.0517255 0.6156089
0.1517922 0.05097352 0.6169459
0.145554 0.05120073 0.6172404
0.1483287 0.05222599 0.6149793
0.1525826 0.05034225 0.6180931
0.1495679 0.05189532 0.6158182
0.1467351 0.051065 0.6173598
0.1490766 0.04921039 0.6196292
0.1520157 0.04904409 0.6209457
0.1522495 0.052694 0.6133653
0.1509683 0.0517697 0.615757
0.1413241 0.04873665 0.6194386
0.1490754 0.04821911 0.621575
0.1450187 0.05168014 0.6153502
0.152125 0.05394667 0.6113337
0.1338308 0.04831304 0.6211202
0.1315051 0.05140493 0.6153167
0.132499 0.05080409 0.6160015
0.1423609 0.05328388 0.6111456
0.1429523 0.05201068 0.6135112
0.1460099 0.0527711 0.6124111
0.1376721 0.05132877 0.613668
0.1375735 0.05211531 0.6122937
0.142665 0.05261923 0.6124085
0.1453022 0.04920786 0.6195086
0.1433775 0.05022582 0.6172093
0.1392116 0.05009274 0.6157194
0.1365268 0.04997975 0.6163785
0.1459195 0.0516405 0.6163821
0.1433202 0.049205 0.6190637
0.135682 0.05268502 0.6118205
0.1342503 0.05200208 0.6134533
0.1472169 0.05253544 0.6135126
0.1455082 0.05225961 0.6138924
0.1410596 0.05261827 0.6120189
0.1462178 0.05339204 0.6110897
0.134855 0.05345405 0.6104623
0.1450874 0.05301679 0.6115788
0.1485239 0.05455179 0.609502
0.1419833 0.0539477 0.6099626
0.1505061 0.05452235 0.6101656
0.1458622 0.0554141 0.6078147
0.1440339 0.05536328 0.6077709
0.1414914 0.05184819 0.6134273
0.1352178 0.04848966 0.6202376
0.1438522 0.05664339 0.6049237
0.1319625 0.04989228 0.6174706
0.1402366 0.04768267 0.6238002
0.140047 0.04798624 0.6223721
0.1330603 0.0493254 0.6186774
0.146979 0.04795136 0.6221693
0.1527 0.04885991 0.621944
0.153587 0.04858793 0.6227078
0.1540224 0.04894761 0.6216387
0.1399869 0.04551651 0.6282229
0.1364214 0.04932538 0.6177192
0.138126 0.04825289 0.6206641
0.1387555 0.04855306 0.6196699
0.1320088 0.04814095 0.6217232
0.1428943 0.04768464 0.6220648
0.1375729 0.04842577 0.619746
0.1369734 0.04683226 0.6242737
0.152524 0.04826092 0.6232688
0.1481555 0.04734467 0.6234202
0.145924 0.0484381 0.6208361
0.1311185 0.04843624 0.6204923
0.1332154 0.04690603 0.6252535
0.1333502 0.04619442 0.6264366
0.141494 0.04761739 0.6230699
0.1369597 0.04746075 0.62269
0.1382286 0.04660982 0.6251907
0.1356966 0.0467427 0.6247777
0.1529005 0.0459732 0.6269868
0.141257 0.04713927 0.6244842
0.134709 0.04642985 0.6256532
0.1406189 0.0464855 0.6257545
0.1441935 0.04550472 0.6273037
0.1441161 0.04605007 0.6260692
0.1511277 0.04844647 0.6221989
0.148987 0.04683724 0.6244366
0.1512346 0.04769519 0.6240035
0.144351 0.0466767 0.624504
0.1429037 0.04705596 0.6236426
0.1521261 0.04643909 0.6261302
0.1381605 0.04594939 0.6265182
0.1527163 0.04735322 0.6247865
0.1506491 0.04626533 0.6261975
0.1534685 0.04659147 0.6259906
0.1367805 0.04567207 0.6275959
0.1318721 0.04664307 0.6259507
0.1311126 0.008509897 0.6284147
0.1298938 0.005274276 0.6275656
0.1299933 0.003435317 0.6267885
0.1309434 0.04503742 0.6279289
0.1224385 0.04442985 0.6273885
0.1269022 0.04527522 0.6258057
0.1288484 0.006376566 0.6277518
0.1282116 0.007834741 0.6277382
0.1247868 -0.0003897313 0.6279851
0.1269988 8.891743e-06 0.6261677
0.1272915 -0.002221436 0.6267958
0.1255093 -0.0005073155 0.6266147
0.129032 0.04939616 0.6191275
0.1249854 0.04706194 0.6240647
0.1267565 0.04731519 0.6232652
0.1284719 0.05100539 0.616296
0.1253561 0.04826822 0.6223638
0.1279956 0.04656532 0.6238062
0.1292932 0.04707649 0.6232638
0.1297008 0.04849957 0.6202919
0.1272106 0.04800181 0.621786
0.1258809 0.05062458 0.6176322
0.1245932 0.04922001 0.6208565
0.1236069 0.04850985 0.621753
0.1252838 0.04985846 0.6194949
0.1238845 0.04995807 0.6197494
0.126867 0.05178082 0.6149822
0.1414484 0.05742206 0.602739
0.139073 0.05642354 0.6047029
0.1239584 0.0527595 0.6115246
0.1271806 0.05108958 0.6162344
0.1256317 0.05218747 0.613833
0.1324583 0.05270143 0.6129197
0.1321921 0.05359337 0.6113069
0.1296689 0.05325091 0.6117703
0.12719 0.05346863 0.6105722
0.1310909 0.04906418 0.61911
0.1295732 0.05074244 0.6165547
0.1310252 0.05069048 0.6164556
0.1302984 0.05139446 0.6154464
0.1301394 0.04986162 0.61768
0.1306331 0.05379844 0.610817
0.1301747 0.05439133 0.6090248
0.1337752 0.04774858 0.6229175
0.1330554 0.04750139 0.6241925
0.1305269 0.04774105 0.6226449
0.1319452 0.04772238 0.6233858
0.1305273 0.04732053 0.6240308
0.1278487 0.04586399 0.6249213
0.130295 0.04592827 0.6264594
0.1565319 0.05699271 0.6062924
0.1566982 0.05571666 0.6087011
0.1569811 0.05801487 0.6044126
0.15456 0.05653705 0.6065125
0.1541889 0.05550881 0.6078241
0.1525519 0.05523636 0.6082222
0.1532287 0.05716038 0.6054026
0.1501419 0.06013576 0.5993627
0.1536072 0.05836963 0.6029904
0.1549262 0.0589019 0.6020956
0.1475816 0.05901337 0.6006511
0.1511028 0.06058915 0.5980995
0.1503588 0.06092845 0.5970713
0.1566886 0.05883737 0.6025311
0.1537952 0.05784577 0.6042606
0.1415516 0.05565367 0.6063645
0.1537166 0.06112031 0.5970749
0.1526419 0.05959598 0.6008714
0.1407262 0.05954263 0.5982361
0.1354177 0.05902077 0.5991648
0.1311384 0.05991783 0.5968089
0.1549278 0.06012468 0.5993565
0.1539571 0.06054867 0.5983409
0.152656 0.06060839 0.5981183
0.1398433 0.06397282 0.5889921
0.1506867 0.05949082 0.6009739
0.1494931 0.06045087 0.5980943
0.1449382 0.05864448 0.6000466
0.149738 0.05760108 0.6043245
0.14211 0.05821089 0.6012195
0.1405941 0.06039547 0.596669
0.147753 0.05973777 0.5982321
0.1467075 0.0589261 0.5995453
0.1241161 0.05677804 0.6026058
0.135214 0.05834256 0.6005472
0.1511757 0.05512027 0.6087615
0.1471447 0.05834133 0.6021879
0.1487358 0.0582741 0.6029156
0.1488356 0.05603169 0.6068373
0.1489674 0.05957739 0.6002185
0.1363899 0.05718862 0.6030785
0.1430852 0.05885382 0.5999666
0.1488583 0.05900588 0.6016297
0.1497935 0.05665276 0.6058498
0.1408851 0.05506948 0.6075342
0.143618 0.05809358 0.6012773
0.1451617 0.05800575 0.6019674
0.1462509 0.05855833 0.6008537
0.1477397 0.05531914 0.6079692
0.1336199 0.05806985 0.601146
0.1430597 0.05456137 0.6089145
0.1435344 0.0537576 0.6101289
0.1423638 0.05521607 0.6076506
0.1403877 0.05390392 0.6098319
0.152369 0.05462654 0.6097846
0.1539933 0.05473067 0.6092668
0.1427936 0.05762478 0.6021954
0.1496003 0.055223 0.6083874
0.1431257 0.05588426 0.6063246
0.1527715 0.05608277 0.6067284
0.1550124 0.05756209 0.6051567
0.1513731 0.05690511 0.6056001
0.1508495 0.05588254 0.6072
0.1430714 0.05714154 0.6034293
0.1468479 0.05622287 0.6062942
0.1246396 0.05874943 0.5984826
0.131191 0.06368902 0.5886314
0.1360673 0.06468668 0.5872625
0.1425754 0.06273739 0.5917028
0.1363498 0.06334125 0.5908857
0.1424535 0.06390067 0.5894018
0.1409975 0.06365558 0.5897054
0.1393618 0.06323133 0.5910667
0.1399157 0.06350646 0.5900638
0.1381317 0.06237641 0.5933881
0.1263119 0.06305954 0.5890217
0.1372029 0.0628527 0.5923378
0.1401385 0.06264459 0.5921631
0.138741 0.06283829 0.5922927
0.1386254 0.06360251 0.5897422
0.1379477 0.06327403 0.5910664
0.1452655 0.06550107 0.5864121
0.1429996 0.06778995 0.5819716
0.1401273 0.06799814 0.5811806
0.1517016 0.02881702 0.6615428
0.1615508 0.03844124 0.6437517
0.1643555 0.0411226 0.6396871
0.1719378 0.04155393 0.6389551
0.1713163 0.04093097 0.6403308
0.1729714 0.04086197 0.6399243
0.1698563 0.04100225 0.6404274
0.1704286 0.04172615 0.6392405
0.1742613 0.04025614 0.6410185
0.169467 0.04236735 0.637926
0.166739 0.0414552 0.6391407
0.1675034 0.04216484 0.6376902
0.1581342 0.03919672 0.6413341
0.1557659 0.04119834 0.6376064
0.1542346 0.04087823 0.6380374
0.1618447 0.04145966 0.6384214
0.1568948 0.03904979 0.6417835
0.1629758 0.04136031 0.6390502
0.1657436 0.03985076 0.642135
0.1671892 0.04097188 0.6405136
0.1685909 0.04147342 0.6394641
0.1602017 0.04025423 0.6396524
0.1567059 0.03986815 0.640462
0.1554039 0.04059494 0.6392177
0.1557894 0.03910046 0.6415945
0.1682716 0.03957115 0.6424741
0.1597217 0.0394637 0.6410999
0.1585436 0.03996963 0.6398458
0.157642 0.03845992 0.642637
0.156096 0.03824884 0.6427516
0.1637383 0.03810618 0.6447455
0.1491788 0.0409564 0.6384981
0.1507762 0.04052696 0.6386414
0.1495657 0.0403221 0.6395116
0.1526081 0.04057382 0.6382638
0.1503924 0.03957817 0.6402461
0.1423185 0.03628176 0.6378414
0.1450923 0.03731219 0.6388975
0.1439433 0.03878871 0.6377998
0.1462361 0.03745807 0.6417497
0.1482483 0.03829411 0.6415886
0.147521 0.03844953 0.6402745
0.151798 0.03730337 0.6443546
0.1468758 0.03638215 0.645784
0.1497919 0.03861307 0.6415746
0.1426931 0.03633048 0.6412916
0.1453403 0.03683877 0.6453611
0.1411567 0.03545648 0.6449841
0.1533332 0.03706305 0.6450664
0.15483 0.03966521 0.6407213
0.1514305 0.03885113 0.6413682
0.1524964 0.03818832 0.6425698
0.1502639 0.03521185 0.6484413
0.1531288 0.03912149 0.6410127
0.1761684 0.02759141 0.6671403
0.1772088 0.02744631 0.6679353
0.1662886 0.03456595 0.6514304
0.1671142 0.03374895 0.6526244
0.1498235 0.03717512 0.6443503
0.1543889 0.03849336 0.642234
0.1535556 0.03765311 0.6436773
0.1583423 0.03797291 0.6439153
0.1661168 0.040538 0.6411467
0.1548928 0.03770636 0.6433997
0.1507366 0.03793781 0.6428489
0.1599969 0.03809443 0.6438559
0.1591146 0.03862692 0.6424983
0.1667468 0.03935875 0.6429735
0.1644041 0.03966878 0.6425476
0.1608125 0.03596656 0.6485432
0.1624649 0.03542867 0.6494622
0.1657741 0.0410171 0.6401171
0.1646559 0.04048466 0.6411408
0.1631722 0.03998997 0.6418231
0.1641554 0.03900687 0.6437486
0.1702119 0.0333566 0.6542203
0.1685556 0.03302801 0.6548647
0.1643991 0.03669096 0.6471664
0.1651824 0.0384671 0.6445851
0.1654176 0.03920504 0.6433933
0.1543749 0.03686516 0.6454809
0.154563 0.03725922 0.6444833
0.152919 0.03612436 0.6474168
0.1536553 0.03654158 0.6462863
0.1626141 0.03633787 0.6477276
0.1661411 0.03705646 0.6468927
0.1561197 0.03669911 0.6462036
0.1554699 0.03704169 0.6452981
0.1549378 0.03652504 0.6463466
0.160914 0.03673675 0.6467484
0.1628851 0.03717269 0.6459175
0.1558129 0.03605282 0.6475075
0.1480148 0.03561153 0.6472521
0.1695105 0.03774423 0.6459959
0.1680432 0.03730804 0.6467007
0.1671835 0.03651296 0.6480669
0.1641325 0.03595607 0.6486087
0.1633166 0.0339094 0.6522164
0.1589617 0.0362415 0.647766
0.1522269 0.03661249 0.6461058
0.1536111 0.03566939 0.6483214
0.1513207 0.03586866 0.6475936
0.1505659 0.03661456 0.6459373
0.1560822 0.03534057 0.6490824
0.1572439 0.03588444 0.6482598
0.1488243 0.03643226 0.6458022
0.1656365 0.03634586 0.6482242
0.1642237 0.03521788 0.6499136
0.1599285 0.03265328 0.6552716
0.1612022 0.0321212 0.6563828
0.163248 0.03244852 0.6558323
0.1781596 0.03502582 0.6525847
0.1679677 0.03441869 0.6513368
0.1665422 0.03579036 0.649198
0.1568967 0.0318815 0.6552247
0.1592704 0.03566867 0.6494876
0.1616776 0.03473818 0.6506986
0.1604432 0.03437236 0.6513736
0.1581121 0.0357049 0.6490456
0.1630216 0.03456338 0.6508238
0.1670962 0.03322466 0.6541491
0.1668084 0.03244594 0.6566213
0.1536193 0.03513614 0.6495057
0.1672472 0.03509895 0.6502532
0.1656636 0.03338649 0.6536261
0.1653231 0.03289845 0.6550488
0.1658773 0.03258549 0.6561678
0.1698082 0.03258991 0.6557255
0.168627 0.02863564 0.6636056
0.1669945 0.03293681 0.6555556
0.1681681 0.03251457 0.6562746
0.1757173 0.02870474 0.6650281
0.1655325 0.03188959 0.6572426
0.1625961 0.03147886 0.6574188
0.1461068 0.03230494 0.6544212
0.1487621 0.03471436 0.649839
0.1478637 0.03423072 0.6507262
0.1535199 0.03472779 0.6508774
0.1591677 0.03479668 0.6508173
0.1646068 0.0345544 0.6512024
0.1567917 0.03051895 0.6580722
0.1566314 0.03472924 0.650408
0.1433575 0.03070788 0.6574662
0.159022 0.0337969 0.6521478
0.1473834 0.03507122 0.6490219
0.1764219 0.03109587 0.6597019
0.1571853 0.03539712 0.649417
0.1549744 0.03474525 0.6503738
0.1448663 0.03372271 0.6512547
0.1541649 0.03399879 0.652015
0.1494689 0.03422994 0.6510159
0.1657058 0.03523345 0.6502621
0.1461849 0.03447643 0.6503186
0.1462605 0.03554495 0.647357
0.1437758 0.03474208 0.6489241
0.144099 0.03610317 0.645487
0.1423953 0.03500646 0.6478947
0.1454604 0.03505526 0.6488078
0.1444163 0.03696756 0.6441541
0.1442891 0.03553839 0.6472705
0.1490192 0.03514202 0.6485796
0.1542677 0.03602171 0.6473837
0.1499868 0.03477933 0.6496847
0.1523924 0.03497984 0.6502527
0.1496512 0.03573449 0.6472338
0.1547242 0.03537703 0.6486228
0.1692423 0.03194208 0.6571409
0.1674552 0.03167127 0.6576323
0.1525226 0.03558846 0.6487584
0.1510205 0.03449889 0.6508296
0.168856 0.0350158 0.6502537
0.174363 0.02716049 0.667364
0.174781 0.02649105 0.669091
0.1629643 0.02760944 0.6652333
0.1761014 0.02700947 0.6683902
0.1855169 0.03086105 0.6615351
0.1850312 0.02790447 0.6661257
0.1806831 0.02643431 0.668782
0.1835545 0.02967651 0.6643818
0.184348 0.02866301 0.6653413
0.1643304 0.02650841 0.6673629
0.1716522 0.02905614 0.6628078
0.1720856 0.02711461 0.6666389
0.1743808 0.02841611 0.6650283
0.1701503 0.0271816 0.6668287
0.1728885 0.02654144 0.6684745
0.1811215 0.03015134 0.6631806
0.1684333 0.02813018 0.6647559
0.1605221 0.02800053 0.6636025
0.1734753 0.02773475 0.6657048
0.1587873 0.02730604 0.6645039
0.1577792 0.02628008 0.6668
0.156049 0.02825513 0.6626859
0.1556432 0.02589521 0.6678134
0.145555 0.02795364 0.6631324
0.1460792 0.02602672 0.6664315
0.1501968 0.02719445 0.6640522
0.1528724 0.02590672 0.6669317
0.1515246 0.02642524 0.6656525
0.1563787 0.02633438 0.6666722
0.1509398 0.02543907 0.6675471
0.1694269 0.02657954 0.6681354
0.1642623 0.0258264 0.6691967
0.1710627 0.02650819 0.6680321
0.1676355 0.02484564 0.671063
0.1578702 0.02546564 0.6691102
0.1465314 0.02529288 0.6677256
0.1587457 0.02601021 0.667676
0.1571493 0.02597188 0.667807
0.1564331 0.02572857 0.6687272
0.1402011 0.0269938 0.6638106
0.163945 0.02260283 0.6751112
0.1484112 0.02444498 0.6689786
0.1600857 0.02317532 0.6721978
0.1441306 0.02583924 0.6663408
0.1538422 0.02475979 0.6692855
0.1526223 0.02426009 0.6695345
0.1702448 0.02609698 0.6689949
0.1818465 0.02980378 0.664529
0.1772639 0.02146287 0.6785535
0.178454 0.02111527 0.679206
0.1791752 0.02674609 0.6690243
0.1800578 0.02747018 0.667923
0.1815607 0.02715744 0.6678466
0.1831545 0.02693396 0.6678567
0.1917183 0.02768677 0.6678513
0.1924525 0.0289497 0.6652203
0.1862185 0.02687082 0.6679699
0.1884793 0.02620005 0.6706185
0.191961 0.02571017 0.6717589
0.1773616 0.02007762 0.6805856
0.1819458 0.0263419 0.6685663
0.1776066 0.02197252 0.6774073
0.1587748 0.02365832 0.6719094
0.1781179 0.02612429 0.6700352
0.196442 0.02537022 0.6738772
0.1951831 0.02512684 0.6742934
0.1626923 0.02381436 0.6730607
0.1566915 0.02330459 0.6727955
0.161805 0.02297184 0.6737558
0.1637807 0.0243526 0.6720061
0.1644075 0.02339607 0.6735455
0.1678986 0.0237879 0.6728305
0.1830525 0.0249396 0.6716865
0.1983197 0.02390123 0.6758077
0.1876825 0.02440572 0.6739956
0.1880368 0.0251811 0.6725081
0.1700024 0.02237713 0.6756594
0.1552401 0.02534595 0.668961
0.1602951 0.01936312 0.6811376
0.1793345 0.02321974 0.6746659
0.1621592 0.02430494 0.6716745
0.1563464 0.02527694 0.6696582
0.1683961 0.02304754 0.6741855
0.1518594 0.02267632 0.6731796
0.1551166 0.02376391 0.6717836
0.1580432 0.02211633 0.6745369
0.1535149 0.02317816 0.6725069
0.1612855 0.023444 0.6724778
0.1523678 0.02320803 0.6716537
0.1581791 0.0227511 0.6732868
0.1630442 0.02315851 0.6741865
0.1665054 0.023339 0.6734707
0.157078 0.02455018 0.670884
0.1718729 0.02374714 0.6740139
0.1716037 0.02258065 0.6759643
0.1609801 0.02219067 0.674525
0.1702834 0.02345281 0.67401
0.1594265 0.0221665 0.6740704
0.1571182 0.02262478 0.67401
0.1559629 0.02246229 0.6742194
0.1649208 0.02196849 0.6763995
0.154889 0.02291962 0.6733629
0.1495314 0.01885401 0.6809597
0.1593352 0.02058441 0.6776588
0.1584573 0.02112989 0.6764953
0.1534783 0.02390116 0.6707715
0.1505158 0.01948413 0.6800417
0.1433714 0.02042411 0.6768699
0.1459676 0.0239736 0.6703575
0.140441 0.02615314 0.6653907
0.1510708 0.02313212 0.6715649
0.1498676 0.0229009 0.6728838
0.1519026 0.02363343 0.6704095
0.149897 0.02438679 0.6688894
0.1498502 0.02334256 0.6713036
0.1477454 0.0250727 0.6680154
0.1428562 0.02451033 0.6682463
0.1453073 0.02461574 0.6687505
0.1490135 0.02522706 0.6676807
0.1505387 0.0236477 0.6701797
0.1573397 0.02777306 0.663401
0.1783315 0.03076767 0.6619205
0.1796492 0.03112473 0.6601537
0.1632823 0.02915663 0.6627042
0.1642729 0.02836158 0.6642298
0.1790252 0.02901884 0.6648376
0.1677187 0.02933802 0.6616385
0.1674823 0.02893839 0.66286
0.1795097 0.02997295 0.6633053
0.1631379 0.02995896 0.6610306
0.1852964 0.0294484 0.6641558
0.1804433 0.02953535 0.6642796
0.177264 0.02882092 0.6648411
0.1660441 0.02867547 0.6635328
0.1623177 0.02821334 0.6640556
0.1570258 0.02727986 0.6645586
0.1532382 0.0281239 0.6625819
0.1616924 0.02872973 0.6628518
0.1602836 0.02895141 0.6619773
0.1752299 0.02964148 0.6629632
0.1762212 0.02933679 0.663853
0.1869682 0.02930644 0.664192
0.1891429 0.02796873 0.6663483
0.1778229 0.0296847 0.6635851
0.1765595 0.03004333 0.6625432
0.1802816 0.03051024 0.6618237
0.1895827 0.02966223 0.6635983
0.1647616 0.03233754 0.6562524
0.1719494 0.03003784 0.661488
0.1584591 0.02906302 0.6613142
0.1778096 0.03122262 0.6599013
0.157289 0.02850867 0.6620995
0.1589993 0.03057916 0.658456
0.1578084 0.02977581 0.6597325
0.1726063 0.03107031 0.659289
0.1812044 0.03079131 0.6604975
0.1706593 0.03043456 0.6605364
0.1646012 0.03015034 0.65983
0.1837089 0.03073988 0.6616213
0.1894032 0.03140194 0.6606229
0.1618546 0.02962008 0.66183
0.1659132 0.03079733 0.6585814
0.1688407 0.03141261 0.658365
0.1703272 0.02959152 0.6618218
0.1754256 0.03129176 0.6587329
0.1607665 0.03032524 0.6596344
0.1618376 0.03015944 0.6606265
0.1625369 0.03058791 0.6592613
0.1695824 0.03088709 0.6594187
0.159559 0.02968727 0.6603382
0.1608681 0.02978005 0.660952
0.1751259 0.0301102 0.661682
0.1752153 0.03070152 0.6601886
0.1845498 0.03039484 0.6630099
0.182782 0.0308846 0.6601718
0.1846526 0.03099199 0.6600879
0.163995 0.03187595 0.6570108
0.1730886 0.03141966 0.6581278
0.1744154 0.03251902 0.6561565
0.1719965 0.03070105 0.6603006
0.1742331 0.03167081 0.6576583
0.1702531 0.03145182 0.6581619
0.1806468 0.03290135 0.6561406
0.1717993 0.03147129 0.6580237
0.1577597 0.03127319 0.6567084
0.1764469 0.03353235 0.6550595
0.1766009 0.0306627 0.661036
0.156104 0.03116067 0.6563464
0.1727676 0.03221288 0.6567208
0.1641338 0.03119376 0.6582792
0.1575894 0.03254968 0.6542387
0.1594484 0.03174885 0.6567724
0.1735091 0.03047859 0.6606969
0.1711618 0.03113111 0.6593312
0.1862511 0.03115741 0.660251
0.1740251 0.03110132 0.6591424
0.181968 0.03048719 0.661747
0.1827909 0.0305215 0.6632279
0.1492303 0.02993764 0.6583017
0.1504915 0.03062067 0.6580582
0.1514583 0.03050214 0.6591643
0.1493787 0.02915613 0.6600163
0.1515794 0.03131196 0.6575076
0.1527691 0.03021047 0.6596638
0.1560551 0.02893848 0.6617267
0.1544098 0.03146483 0.6561784
0.1476338 0.029852 0.6584997
0.1439468 0.03130386 0.6560192
0.1482821 0.03070479 0.6571623
0.1444504 0.02998822 0.6586654
0.1453508 0.02933908 0.6597392
0.1328189 0.02671804 0.6465722
0.1335576 0.02594528 0.6454864
0.1476483 0.03190003 0.6556244
0.1529923 0.03160255 0.6569445
0.1563409 0.03265724 0.6537815
0.1553829 0.03195363 0.6548847
0.1548175 0.03288699 0.6533861
0.1542103 0.03098189 0.6578211
0.1452632 0.02867352 0.6613047
0.1483176 0.02917323 0.6595276
0.1496871 0.02825297 0.6618718
0.1558655 0.02763725 0.6638543
0.1453675 0.02694261 0.6648659
0.1473691 0.02832057 0.662151
0.1514209 0.0277972 0.6627966
0.1485836 0.02764617 0.6633598
0.1547995 0.02877278 0.6620013
0.1548364 0.02805855 0.6630479
0.152339 0.027242 0.6640835
0.1542265 0.0274641 0.6640562
0.1555948 0.02696265 0.665298
0.1471361 0.02749151 0.6639736
0.1363304 0.02795925 0.6616736
0.1304131 0.02299375 0.6413741
0.1419001 0.02816147 0.6616415
0.1350928 0.0274409 0.6436792
0.1314645 0.02816184 0.6608844
0.1384532 0.02644355 0.6647684
0.1354618 0.02633623 0.6423329
0.1344589 0.02509937 0.6430651
0.1379671 0.03126582 0.6383502
0.1360353 0.02693101 0.6411426
0.1370086 0.02788174 0.6416072
0.1352433 0.02944669 0.6375751
0.1356381 0.02906018 0.6397774
0.1349984 0.03427162 0.6425503
0.1370106 0.02943942 0.641639
0.1358478 0.03033078 0.6382293
0.1337501 0.0281572 0.6609462
0.1423315 0.02889815 0.6601523
0.1389423 0.02911535 0.6593836
0.132771 0.02732154 0.6624561
0.1362612 0.03017313 0.6572472
0.1344279 0.02683193 0.6633592
0.1346368 0.02905137 0.6595862
0.1340964 0.02765639 0.6452496
0.1335463 0.03200005 0.653042
0.1327766 0.02900447 0.6590049
0.1330478 0.02374076 0.642365
0.1317622 0.02569245 0.6477226
0.1296265 0.02745263 0.6613937
0.1299262 0.03052922 0.6552747
0.1320495 0.02650183 0.637925
0.1313533 0.02571333 0.6394452
0.1327147 0.02708156 0.6392951
0.13553 0.0250017 0.6676349
0.1322285 0.0226063 0.6446266
0.1285606 0.01964592 0.6558839
0.1270652 0.0280535 0.6549049
0.1272871 0.0282586 0.6530803
0.1319661 0.02449023 0.6680997
0.1334867 0.02424847 0.6690161
0.1351046 0.02426243 0.6694094
0.1381819 0.02256325 0.672484
0.1379349 0.02332201 0.6708517
0.1423198 0.02408406 0.6692963
0.141569 0.02449722 0.6681064
0.1418036 0.02357357 0.6706101
0.1432621 0.02385783 0.6704687
0.1404513 0.02274812 0.672392
0.1393784 0.02249623 0.6729902
0.1353448 0.02317982 0.6712278
0.1418291 0.02251811 0.6729261
0.1424777 0.0218182 0.6744957
0.1411779 0.02116087 0.6756391
0.1356971 0.02214443 0.6728023
0.1384326 0.0190561 0.6792443
0.1374625 0.02060403 0.6762796
0.1332146 0.02221966 0.674063
0.1321905 0.02278035 0.6728564
0.1360549 0.02134782 0.6742752
0.1311745 0.02313915 0.6713403
0.1340107 0.02749944 0.6621832
0.1403276 0.02778105 0.662211
0.1309979 0.02558082 0.6664588
0.1367123 0.0245283 0.6685282
0.1409797 0.0252509 0.6668258
0.1421967 0.02600333 0.665902
0.1391893 0.0254689 0.6665829
0.1371173 0.02546875 0.6666017
0.1355101 0.02569735 0.6662457
0.1387763 0.02732338 0.6629221
0.1342971 0.02603984 0.6653564
0.1362048 0.02636693 0.6646302
0.1433357 0.0267429 0.6648579
0.1440037 0.02765208 0.6636968
0.1416173 0.02752856 0.6631163
0.1364938 0.02948845 0.6591162
0.1427011 0.02738575 0.6637991
0.1374031 0.02702574 0.6634567
0.1314721 0.02761736 0.6474011
0.13278 0.02845846 0.6462991
0.1316507 0.02926711 0.6468633
0.1295208 0.02458811 0.6663586
0.1301098 0.02579661 0.6648729
0.1307205 0.02470154 0.648832
0.1325883 0.02988997 0.6460855
0.129666 0.03159827 0.6540892
0.1328898 0.03137093 0.6540867
0.1347887 0.0302166 0.6566145
0.09424244 0.03613825 0.6422714
0.1314618 0.03251358 0.6462983
0.1305053 0.02647186 0.648602
0.1358489 0.03153375 0.6545544
0.1359906 0.0307206 0.6557839
0.134551 0.03180103 0.6538309
0.1410659 0.02944881 0.6589919
0.1372673 0.03153065 0.6551182
0.141666 0.0322098 0.6533405
0.1432025 0.03325919 0.6514814
0.1396653 0.03191933 0.6537713
0.1409721 0.0314377 0.6548722
0.1371055 0.03196165 0.6539949
0.1401157 0.03270099 0.6523734
0.1380612 0.02992372 0.6576584
0.1404775 0.03070038 0.6562893
0.1416513 0.03036343 0.6575633
0.1320273 0.03046884 0.6552613
0.1376146 0.03063263 0.6562461
0.1329373 0.02991084 0.6568747
0.1346429 0.02965877 0.6580591
0.134149 0.03074052 0.655235
0.09108596 0.03737182 0.6423706
0.1367745 0.03279989 0.651431
0.1434705 0.03400512 0.650272
0.1359498 0.0341705 0.6490778
0.132939 0.03140892 0.645312
0.1308961 0.03376577 0.6481925
0.138541 0.03480202 0.6479821
0.132515 0.03369207 0.6498032
0.1323822 0.03434826 0.6486228
0.1382784 0.03547532 0.6467101
0.1417489 0.03293346 0.6519298
0.1428782 0.03266159 0.652487
0.1421834 0.03420977 0.6493839
0.1396991 0.03572838 0.6440923
0.1397649 0.03466327 0.6479548
0.1396114 0.03553571 0.6458692
0.1426068 0.0353696 0.6460033
0.1427221 0.03608867 0.6436844
0.1383992 0.03571107 0.6430657
0.1341711 0.03570492 0.6444554
0.1367513 0.03558585 0.646273
0.1349784 0.03536842 0.6459536
0.1370838 0.0349482 0.6478034
0.1332342 0.03523174 0.6458471
0.1304855 0.0334421 0.6508632
0.1354991 0.03530714 0.6416945
0.1360938 0.0327189 0.6425241
0.1363497 0.03594739 0.6442261
0.1372282 0.03110481 0.6420278
0.1395001 0.0325373 0.6399047
0.136498 0.03428328 0.6414796
0.1391171 0.03105045 0.6388212
0.1433804 0.03678751 0.6425784
0.1419364 0.03544116 0.6419948
0.1426723 0.03793241 0.6388459
0.1405639 0.03582095 0.6394218
0.1381771 0.03025567 0.6397294
0.1366624 0.03080394 0.6390571
0.09704023 0.03562967 0.6371451
0.13077 0.03009426 0.647538
0.1305382 0.03304318 0.6473336
0.1297701 0.02932935 0.6482643
0.1300608 0.02798367 0.6482695
0.1292072 0.02854316 0.6490419
0.0909529 0.03507239 0.6436241
0.1317549 0.03354562 0.6509394
0.09450833 0.03692853 0.6405603
0.08442084 0.03692427 0.6388924
0.08694337 0.03764757 0.6402957
0.08578203 0.03664986 0.6412909
0.0722708 0.02637083 0.6477459
0.08780784 0.03744409 0.6414678
0.08851966 0.03855656 0.6403701
0.080272 0.03547246 0.6384652
0.09153274 0.03790777 0.6406277
0.09103292 0.03379206 0.6427495
0.07980634 0.01969707 0.6506714
0.09795979 0.03178605 0.6366389
0.1287098 0.02298536 0.6395478
0.1306445 0.02883001 0.6475268
0.1274432 0.0315187 0.6526451
0.1280301 0.03092946 0.6509004
0.1281514 0.02308026 0.6529931
0.1281874 0.02124372 0.6545238
0.1288593 0.02984536 0.6495602
0.1309764 0.02147317 0.6471739
0.1294725 0.01888212 0.6528217
0.129315 0.02159359 0.6416153
0.1309911 0.01990915 0.6441628
0.1299456 0.02046314 0.6494743
0.1304467 0.02157007 0.6484328
0.129377 0.01832937 0.6547414
0.1299404 0.01754261 0.6462189
0.1283173 0.01884446 0.6427931
0.1283603 0.02034597 0.6379014
0.1276662 0.02158772 0.6389985
0.1264299 0.01823165 0.6383761
0.1260964 0.01963595 0.640169
0.126853 0.0200229 0.6388646
0.1296853 0.02388592 0.638368
0.1279176 0.01720539 0.643559
0.1288302 0.01518997 0.6475322
0.1297138 0.0167442 0.6498914
0.1289691 0.01452004 0.6513706
0.1281708 0.009760701 0.6471754
0.129291 0.01569569 0.6486404
0.129076 0.01592646 0.6461583
0.1281541 0.01250324 0.6451813
0.1284636 0.01150775 0.6508191
0.1273837 0.01292186 0.6438942
0.1278506 0.01227127 0.6491663
0.08104753 0.01196504 0.6483656
0.1299513 0.003253501 0.6407794
0.1288164 0.01075189 0.6452108
0.1253098 0.01618638 0.6394408
0.1282957 0.008102389 0.6473274
0.1276855 0.00708336 0.6403482
0.1286744 0.009946818 0.6433046
0.1262773 0.009954474 0.6392688
0.1264657 0.01150531 0.6405144
0.1253733 0.01137018 0.638806
0.1250724 0.01303113 0.6381436
0.1279247 0.01156721 0.6440755
0.07719538 0.009021772 0.645795
0.07931313 0.01015382 0.6454476
0.07839789 0.01915214 0.6488031
0.07366449 0.01080547 0.6392207
0.1267342 0.01326847 0.6428629
0.1272288 0.01174368 0.6425058
0.126342 0.0144903 0.6422619
0.1281793 0.01522911 0.6438793
0.1248208 0.01434272 0.639136
0.1259122 0.01792264 0.6405985
0.112597 0.01702186 0.6726735
0.112297 0.01857707 0.6720188
0.1253833 0.0145524 0.6407333
0.06668433 0.02334774 0.6388344
0.07877531 0.0156549 0.6462728
0.07309778 0.02676884 0.649299
0.07300978 0.02007764 0.6378509
0.06951965 0.02312872 0.6442505
0.07892459 0.01753942 0.6481073
0.07050931 0.03002863 0.6474065
0.05882127 0.03227605 0.6480196
0.05881183 0.03221356 0.6464481
0.07412219 0.01374361 0.6384225
0.07135895 0.01515434 0.6409737
0.07199702 0.01798912 0.644703
0.07705677 0.02244309 0.6489251
0.0692027 0.02994457 0.6469531
0.06932035 0.03056619 0.6478569
0.0682819 0.03071343 0.6486176
0.07025373 0.02568099 0.645961
0.07151321 0.02575152 0.6468327
0.07110018 0.02732365 0.6467436
0.07031021 0.0300378 0.6483523
0.06926043 0.029933 0.648756
0.06848951 0.02951653 0.6498922
0.06891004 0.02861026 0.651335
0.06691135 0.02787983 0.6450257
0.06718978 0.02762323 0.6435606
0.07339644 0.02066388 0.6460903
0.07408902 0.0173933 0.6458542
0.07548879 0.02116075 0.6526363
0.07459988 0.02095701 0.6544315
0.0702135 0.02859616 0.6496008
0.07651529 0.01946688 0.6472191
0.07707275 0.01811252 0.6471928
0.07276859 0.023848 0.6530815
0.06903853 0.02467331 0.6449085
0.07286798 0.02354756 0.6469374
0.07428835 0.02277313 0.6474456
0.05833844 0.02607672 0.6554208
0.07907929 0.01636532 0.6475393
0.07225268 0.01525486 0.6445832
0.07217551 0.02483017 0.6514736
0.08030248 0.01671256 0.6484977
0.07778106 0.01689275 0.6466677
0.07926628 0.01131543 0.6445583
0.07992778 0.005723151 0.6563933
0.0482043 0.01946261 0.6680017
0.07363242 0.01130588 0.6409153
0.08029769 0.01139932 0.6455036
0.0757456 0.01469145 0.6450573
0.08004831 0.01437974 0.6462933
0.05342679 0.02813301 0.6544946
0.05329727 0.02784209 0.652976
0.07903489 0.00964517 0.6470283
0.07748909 0.009029297 0.648371
0.07438391 0.01271051 0.6432967
0.07298512 0.01349171 0.6430822
0.07083374 0.01481743 0.6438796
0.07078382 0.0151355 0.6421055
0.07596162 0.0131796 0.6445785
0.07268512 0.008246305 0.6415246
0.07490589 0.01191529 0.6381759
0.07588731 0.0119922 0.6364592
0.07270899 0.01349223 0.6394222
0.07201845 0.01913026 0.6370621
0.07286645 0.01257285 0.6421409
0.07326531 0.01842325 0.6380634
0.0697849 0.01580787 0.6425556
0.07226872 0.01604136 0.6399721
0.07280634 0.01278712 0.6404184
0.07375595 0.01008524 0.642271
0.0663859 0.02648634 0.6423132
0.05624672 0.02688653 0.6535923
0.06572957 0.02493601 0.638334
0.06446066 0.02532002 0.6402532
0.03294389 0.02779679 0.6492624
0.06719428 0.03076248 0.6403264
0.05782142 0.03202888 0.6454258
0.06002544 0.0301326 0.6376382
0.06771522 0.02673638 0.6446176
0.06863257 0.0244162 0.6428448
0.06708359 0.02290256 0.6418941
0.0670071 0.02480975 0.6422875
0.04232773 0.02845006 0.6490517
0.05950064 0.02578292 0.6561234
0.03455782 0.02916095 0.6458044
0.05168622 0.02883252 0.6528541
0.05053343 0.02862564 0.6515576
0.04134837 0.02796651 0.6500508
0.04129446 0.02873643 0.6478932
0.03550911 0.02885902 0.6472715
0.03032968 0.02746396 0.6498697
0.03016518 0.02757845 0.6486833
0.02969113 0.02850246 0.6449981
0.04890231 0.03230809 0.6426132
0.04531957 0.02884006 0.6496255
0.03680858 0.02698356 0.6515934
0.06817899 0.02553067 0.644349
0.06311296 0.03034806 0.6515873
0.06650075 0.03203478 0.6465319
0.04268862 0.02948769 0.6463304
0.04162356 0.02969914 0.6457652
0.06796131 0.02614891 0.6432386
0.06066624 0.02845385 0.6379541
0.04680963 0.02886714 0.6494548
0.06641348 0.02998362 0.6434948
0.07587551 0.001979428 0.64709
0.04393747 0.02971865 0.646693
0.04272758 0.02900359 0.6474863
0.04510864 0.03036473 0.6455584
0.05830081 0.03201413 0.643668
0.04750314 0.02878011 0.6483495
0.04803327 0.02874228 0.6493592
0.04324927 0.03035599 0.6451448
0.04608537 0.02893741 0.6483085
0.047079 0.02925608 0.6472027
0.05466153 0.03044563 0.6469237
0.06436259 0.03030712 0.6507218
0.06467017 0.03038341 0.6529344
0.06801439 0.02737059 0.6521342
0.04555967 0.02965738 0.6470497
0.04939171 0.03309191 0.6414918
0.04675143 0.03293967 0.6405649
0.05386948 0.02773272 0.6514751
0.0436438 0.02871847 0.6501595
0.04715005 0.03005662 0.6517046
0.05801385 0.0295493 0.6500639
0.06624932 0.03386542 0.6465815
0.06584656 0.02971687 0.6454244
0.05835233 0.0295526 0.6689558
0.05421907 0.03157539 0.6455351
0.05525761 0.03190315 0.6445654
0.05545627 0.03225437 0.6430001
0.05892558 0.03279621 0.6400746
0.03279084 0.03123807 0.6407768
0.04097966 0.04297599 0.6393265
0.03200162 0.02851703 0.6460276
0.03128524 0.02889495 0.6443266
0.03014446 0.02901722 0.6433255
0.05271889 0.03147604 0.6448529
0.05396834 0.03201791 0.6438966
0.06277375 0.03123594 0.6388658
0.05393508 0.03202103 0.6415986
0.05760294 0.03315377 0.6409529
0.07585883 0.03314894 0.6391028
0.07682995 0.03276709 0.6405835
0.06243556 0.02901922 0.639299
0.03183362 0.03154515 0.6400363
0.06429882 0.03203965 0.638344
0.06122637 0.03004617 0.6387542
0.02730713 0.03199019 0.6382716
0.02869419 0.03146874 0.6391732
0.03565396 0.03228793 0.6408296
0.05265754 0.03264382 0.6399866
0.0532517 0.03393164 0.6382963
0.03754013 0.04060827 0.6399071
0.03437858 0.0400956 0.6396468
0.05700814 0.03218254 0.6423404
0.04548488 0.03320922 0.6395049
0.04713768 0.03393205 0.6391774
0.0424987 0.03286207 0.641812
0.0323728 0.03663993 0.6389067
0.03982021 0.0349182 0.6385471
0.05294791 0.03426335 0.6397231
0.0405711 0.0345418 0.6376929
0.04177269 0.03416634 0.6374686
0.04059338 0.03292275 0.6406116
0.04225872 0.03351583 0.6395984
0.05874211 0.03234757 0.6411089
0.04026505 0.03671351 0.6373923
0.04154915 0.03961229 0.6392038
0.03963281 0.03634093 0.6385931
0.03316758 0.04332424 0.6379087
0.04068743 0.0338927 0.6388823
0.0470146 0.03455597 0.6379744
0.03633222 0.03653757 0.6396565
0.03185657 0.03874805 0.6387931
0.04799854 0.03453258 0.6383209
0.04787228 0.03511155 0.6373441
0.03950892 0.0431232 0.6385731
0.03965525 0.03915253 0.6400845
0.04110327 0.04028391 0.6402842
0.04210962 0.04064159 0.6397939
0.04205962 0.04192197 0.6397539
0.04114 0.04389028 0.6375772
0.03458426 0.04310729 0.6383992
0.06166425 0.03223162 0.6397922
0.07673141 0.03444519 0.6381062
0.0769008 0.03445785 0.6398974
0.06737542 0.03341823 0.639395
0.07571734 0.03384412 0.637896
0.06819701 0.0319611 0.6400955
0.07001887 0.03343817 0.6372652
0.06864886 0.03343017 0.6384631
0.06360183 0.03208786 0.6402494
0.06484243 0.03332103 0.6406098
0.06585393 0.03179517 0.644543
0.06349095 0.03642832 0.6435382
0.05834528 0.03281577 0.6504448
0.06352767 0.03369689 0.6412797
0.06212558 0.03470971 0.649544
0.0648452 0.03552902 0.6468408
0.06341153 0.0342673 0.6485332
0.06615879 0.03295959 0.6458002
0.06322956 0.03644061 0.6458185
0.07061648 0.02587117 0.6521937
0.06168107 0.03546086 0.6447005
0.06305438 0.03545018 0.6474302
0.06055837 0.03387986 0.6440124
0.06171421 0.03554245 0.6467179
0.06206555 0.03535213 0.6486301
0.06054594 0.034368 0.6458712
0.05945577 0.03386948 0.6488692
0.05960305 0.03218255 0.6420271
0.03973249 0.0321218 0.6419631
0.06060595 0.0328396 0.6424844
0.06155432 0.03504216 0.650042
0.05827979 0.03207493 0.6420246
0.06005825 0.03304167 0.6523587
0.04260253 0.02870148 0.6513817
0.05501867 0.02731178 0.6523797
0.05566175 0.02699412 0.6552772
0.06872938 0.02085533 0.6669083
0.05233093 0.02803381 0.6514666
0.05890085 0.02773237 0.6518803
0.06003381 0.0266628 0.6548807
0.06186353 0.02653473 0.6551355
0.0619239 0.03029373 0.6506364
0.0624829 0.0301793 0.6495747
0.05697151 0.02731117 0.6516911
0.0601542 0.02737349 0.6531188
0.03023518 0.02487491 0.6546016
0.06469811 0.02844186 0.6547217
0.05136373 0.02833188 0.6500169
0.0606371 0.02967439 0.6510023
0.06312466 0.02885493 0.6530492
0.02996964 0.02581936 0.6535363
0.04127824 0.02795663 0.651202
0.03966393 0.02767204 0.6522737
0.04444491 0.02987702 0.65195
0.04184578 0.02964222 0.654182
0.04943392 0.03097792 0.6551939
0.04856724 0.03123618 0.653899
0.04570598 0.03145023 0.6545942
0.06188922 0.02909463 0.6517628
0.06691148 0.02813362 0.6556503
0.06722528 0.02915825 0.6514701
0.06614993 0.0306939 0.6516129
0.06989053 0.02737551 0.6515943
0.06798699 0.02841179 0.6525205
0.06695599 0.02980179 0.6537339
0.06874415 0.02769579 0.6530584
0.06865066 0.02616631 0.6524712
0.07095273 0.02316865 0.6538308
0.07526574 0.02449507 0.650069
0.07081368 0.02572509 0.6550357
0.06533451 0.02675348 0.6562868
0.06916764 0.02664612 0.657375
0.0698612 0.02478 0.6531597
0.07079028 0.02411623 0.6538395
0.07066146 0.02218759 0.6658584
0.07753275 0.02442379 0.659018
0.0763284 0.02486338 0.6591097
0.115274 0.01577073 0.6824167
0.07474843 0.02476281 0.6609117
0.0735537 0.02505814 0.6601978
0.07273374 0.02079319 0.6548344
0.07938395 0.02279624 0.6597135
0.07285617 0.0232646 0.6556475
0.07103886 0.02479242 0.658413
0.06988719 0.02661226 0.6559653
0.06873078 0.02746854 0.6559784
0.06972197 0.02489816 0.6599251
0.06502541 0.02350596 0.6613927
0.06586337 0.02492129 0.6592
0.06438283 0.02427436 0.6600829
0.06725686 0.02672287 0.6573165
0.04521086 0.02422229 0.6648084
0.03133849 0.02298042 0.657002
0.06694211 0.02563474 0.6585718
0.06564644 0.02564696 0.6577276
0.06290667 0.02700858 0.6718515
0.06134724 0.02665637 0.6718631
0.07025313 0.02544216 0.6568837
0.07193634 0.02451109 0.6562014
0.07449687 0.02147989 0.6669118
0.07500536 0.020882 0.6682336
0.06514499 0.02671941 0.6683342
0.07198014 0.02528638 0.6600603
0.03023739 0.01712482 0.6674477
0.07913052 0.02424351 0.6620732
0.06427775 0.02508179 0.6585153
0.07756263 0.01188937 0.6554419
0.07777072 0.02523758 0.6597961
0.07917827 0.02473038 0.6605177
0.07772688 0.02489944 0.6612241
0.08715619 0.01790234 0.6766096
0.08056915 0.02400648 0.6614953
0.07743768 0.02393063 0.6628771
0.1292904 0.02548158 0.6638085
0.07937192 0.02135191 0.669472
0.05667166 0.02865564 0.66919
0.06334068 0.0294907 0.6658904
0.06215939 0.02833534 0.6710855
0.05943611 0.02873038 0.6699565
0.06432621 0.02925759 0.6670535
0.05788623 0.02835842 0.6702945
0.04757752 0.0298883 0.6642652
0.06105435 0.03032544 0.6671848
0.06403986 0.02576641 0.6569741
0.06517884 0.02264223 0.6642964
0.0569199 0.02987123 0.6674566
0.04765742 0.03077558 0.6627203
0.04648342 0.03099186 0.6593684
0.04006702 0.02859185 0.6569888
0.05634018 0.03162454 0.6621364
0.04288838 0.0307242 0.6572311
0.05759055 0.0259224 0.6581991
0.05513701 0.02838109 0.6680626
0.04039069 0.01990153 0.6636003
0.04199503 0.02831708 0.6595745
0.06014691 0.03061615 0.6659397
0.05836076 0.03070559 0.6659266
0.04667787 0.02753911 0.6658571
0.05643908 0.03076752 0.6655505
0.05793108 0.03119458 0.6643413
0.05762387 0.03088744 0.6624226
0.05936065 0.03079338 0.6648289
0.05300892 0.02442236 0.6687753
0.06102594 0.02890451 0.6698116
0.0451647 0.02596222 0.664617
0.05884853 0.0278517 0.6709715
0.06024736 0.02769677 0.6710763
0.04557928 0.02730038 0.6651158
0.05918005 0.03020393 0.6673518
0.0698846 0.02040656 0.6681253
0.05764411 0.02683437 0.6711888
0.06348936 0.02908436 0.6702188
0.06241747 0.02920752 0.6696861
0.06502234 0.02822639 0.6705999
0.08160212 0.02020674 0.6617621
0.06110787 0.02468416 0.6599686
0.06165348 0.02483143 0.6586647
0.06754479 0.02502998 0.6598085
0.06664138 0.02321513 0.6619361
0.06628554 0.02398747 0.6604903
0.04195663 0.02193229 0.6617677
0.0407525 0.02161601 0.6618336
0.04414161 0.02307229 0.6629013
0.05990853 0.02735364 0.6621553
0.05757626 0.02706168 0.6596959
0.05843654 0.02550685 0.6569451
0.06085046 0.0258782 0.6562217
0.06851166 0.02310968 0.6628582
0.06149809 0.02509915 0.6614326
0.06267705 0.02432998 0.6606513
0.06372909 0.02387927 0.6612238
0.06872676 0.01755231 0.6741716
0.06344324 0.02043496 0.6701447
0.06830718 0.01858787 0.6719519
0.06789218 0.01802457 0.6733416
0.06409834 0.02375537 0.6699756
0.06085516 0.02508552 0.6720401
0.04757482 0.0248346 0.6663956
0.04638113 0.01662938 0.6699427
0.02886759 0.02389793 0.6552373
0.06280349 0.02463332 0.6592982
0.03411174 0.0220989 0.6593075
0.06752567 0.02141583 0.6659921
0.04948045 0.02297477 0.6672508
0.05085292 0.02086349 0.6685694
0.05161823 0.0176348 0.6706699
0.06140273 0.01873477 0.671427
0.06557185 0.01835771 0.6720568
0.06466908 0.02080707 0.6689169
0.06750251 0.0194064 0.6695788
0.06609917 0.01974552 0.6692997
0.07159995 0.01935806 0.6701382
0.06626257 0.02181396 0.6649629
0.06794813 0.02233555 0.6646407
0.07308648 0.02158195 0.6664397
0.07276792 0.01980068 0.6698846
0.07161622 0.02289793 0.6645282
0.06809549 0.02386391 0.6610485
0.06998158 0.02144596 0.6668779
0.07149472 0.02126026 0.667228
0.07301036 0.02229021 0.665055
0.06963036 0.02399386 0.6616432
0.07198799 0.02203782 0.6658158
0.06975327 0.02286625 0.6645267
0.07205512 0.02399496 0.6623738
0.07212956 0.02344592 0.6632926
0.07119458 0.02441078 0.6613762
0.0730632 0.02295777 0.6638651
0.07394715 0.02287443 0.6568769
0.07327276 0.0225044 0.6540147
0.07307641 0.02453873 0.6613807
0.04658723 0.01741025 0.6687999
0.05983425 0.01839447 0.6716601
0.06087351 0.01747112 0.672381
0.04220609 0.01977094 0.6644599
0.03356283 0.02267721 0.6579199
0.03353536 0.02350024 0.6567274
0.03836771 0.02500473 0.6589441
0.05888356 0.02511417 0.6583304
0.05987079 0.02521745 0.6572383
0.07433188 0.02166351 0.653225
0.07178918 0.02361109 0.6546995
0.02763303 0.02237194 0.6573589
0.03566452 0.02246467 0.6594924
0.03706768 0.01836925 0.6667211
0.06869402 0.01955916 0.6689637
0.05673978 0.01630909 0.6740427
0.06730073 0.0204265 0.6671079
0.05726635 0.0199027 0.671478
0.05425282 0.01805532 0.6714046
0.05318829 0.02040972 0.6701228
0.07259919 0.01798916 0.6732927
0.07369713 0.01933424 0.6709514
0.06730193 0.01979884 0.6683573
0.06842046 0.02002717 0.6678067
0.07020438 0.01932481 0.6698076
0.07227126 0.0191455 0.6711707
0.03635475 0.01961524 0.6637697
0.04159322 0.01799395 0.6686271
0.04764935 0.01691479 0.6696266
0.04324128 0.01901161 0.6661782
0.03703015 0.02039874 0.6623498
0.03884555 0.01938598 0.6643164
0.04278488 0.01757597 0.6687806
0.0356404 0.02021072 0.6623846
0.03821509 0.02048793 0.6623467
0.03529491 0.01815836 0.6673538
0.04030778 0.01761962 0.6690922
0.03772512 0.01730318 0.6692017
0.03758886 0.01619132 0.6715317
0.03041047 0.01163735 0.6787872
0.04423163 0.01721118 0.66904
0.038871 0.01761007 0.6688692
0.04074789 0.01681143 0.6708024
0.03904199 0.01704143 0.669941
0.07736201 0.01012481 0.6538973
0.07791514 0.01331602 0.654898
