# .PCD v0.7 - Point Cloud Data file format
VERSION 0.7
FIELDS x y z
SIZE 4 4 4
TYPE F F F
COUNT 1 1 1
WIDTH 1481
HEIGHT 1
VIEWPOINT 0 0 0 1 0 0 0
POINTS 1481
DATA ascii
-0.1591074 -0.01575101 0.7187731
-0.1666591 -0.02744562 0.7139775
-0.1661527 -0.02730398 0.7119523
-0.1654651 -0.0251221 0.7176
-0.1651808 -0.02702198 0.7150362
-0.1667678 -0.02673082 0.7159713
-0.175761 -0.03009028 0.7278109
-0.1706735 -0.0282589 0.7241365
-0.1554784 -0.01451006 0.7161227
-0.1528332 -0.01136631 0.7176083
-0.1559936 -0.01291329 0.7172328
-0.1514895 -0.01001299 0.7194943
-0.1534816 -0.008350993 0.7169007
-0.1682907 -0.02747554 0.7176169
-0.17646 -0.0282592 0.729408
-0.1717053 -0.02961095 0.7234282
-0.170119 -0.02887714 0.7222681
-0.1765727 -0.02989694 0.7235522
-0.1863347 -0.02497124 0.7230218
-0.1777903 -0.02968859 0.726561
-0.1786535 -0.02865515 0.7237678
-0.1826705 -0.02665848 0.7245936
-0.1750734 -0.03131815 0.7257418
-0.1798231 -0.02606075 0.7278733
-0.184375 -0.02847927 0.7222068
-0.1820641 -0.02902842 0.7234629
-0.1758415 -0.02911721 0.7219859
-0.1741597 -0.0291868 0.7185019
-0.173243 -0.02984146 0.7201208
-0.1748834 -0.02901168 0.7203109
-0.1816636 -0.027548 0.7168256
-0.1638916 -0.02710209 0.7114345
-0.1655252 -0.02785911 0.7100902
-0.1636163 -0.02806465 0.7099215
-0.1624177 -0.02918145 0.7029578
-0.1749731 -0.02743625 0.7129254
-0.1685207 -0.02699263 0.7125843
-0.1726547 -0.02698218 0.7119208
-0.1635153 -0.02810046 0.7067094
-0.1647132 -0.02825993 0.7083902
-0.165755 -0.0279022 0.7065473
-0.1632373 -0.02837809 0.70038
-0.1652921 -0.02739378 0.7001184
-0.1592545 -0.02531009 0.7082304
-0.1574815 -0.02449731 0.7088143
-0.159459 -0.02634089 0.7064624
-0.1554095 -0.0256162 0.7047852
-0.1587182 -0.02765173 0.7048799
-0.1575207 -0.02659979 0.7052952
-0.1623525 -0.02822759 0.7050636
-0.1616198 -0.02753068 0.7066929
-0.1593158 -0.02924555 0.7031823
-0.1614045 -0.0297211 0.7038688
-0.1606545 -0.02784223 0.7049613
-0.1603839 -0.03068542 0.7017453
-0.1538379 -0.0236994 0.705776
-0.151658 -0.01987405 0.7088422
-0.1523793 -0.02026118 0.7063446
-0.1550129 -0.02421259 0.7106449
-0.1575391 -0.02428098 0.7110873
-0.1537672 -0.02293156 0.7082623
-0.1550112 -0.02480531 0.7075387
-0.1560433 -0.02314348 0.7122737
-0.1499251 -0.01579882 0.7100971
-0.1539297 0.007655043 0.7057233
-0.1543992 0.00761305 0.7031252
-0.1525772 0.00573936 0.7068483
-0.1528984 0.007705683 0.7075089
-0.1520052 0.008882284 0.7091874
-0.1534965 0.005687186 0.7045414
-0.1516043 0.006600146 0.7085965
-0.1541087 0.006546 0.697398
-0.1552583 0.00840224 0.6979638
-0.1514558 0.01109425 0.7109774
-0.149585 0.006804924 0.7124583
-0.1484687 0.004640998 0.7136561
-0.1508802 -0.003310341 0.6940699
-0.1190201 0.001448822 0.729517
-0.1142018 -0.0008843187 0.7328413
-0.1227296 0.001180751 0.7302743
-0.1361317 0.01196651 0.7129238
-0.1450762 0.01738586 0.703675
-0.1098406 0.01468059 0.699241
-0.1306932 0.01646086 0.7023545
-0.1198026 0.0142163 0.7039549
-0.1356028 0.01746927 0.7021893
-0.1221316 0.0149003 0.7036294
-0.1262673 0.01256009 0.7080633
-0.1295756 0.0155252 0.7039853
-0.1112652 0.01773932 0.6947406
-0.1095749 0.01623644 0.696455
-0.1267933 0.01573706 0.7038059
-0.1298955 0.01216128 0.7106431
-0.1224674 0.01368178 0.7050728
-0.1241912 0.01457029 0.7046809
-0.1214626 0.01230525 0.7061496
-0.1148163 0.01253964 0.7052669
-0.1278992 0.01231016 0.7092842
-0.1294231 0.01308164 0.7087975
-0.132006 0.01439234 0.7073973
-0.1336657 0.009455739 0.716199
-0.1236826 0.01299716 0.7061049
-0.1207868 0.01145551 0.7081342
-0.1218815 0.01099814 0.709703
-0.1248057 0.01195292 0.7085496
-0.1230679 0.01180468 0.7078782
-0.1324454 0.01248466 0.7107988
-0.1312332 0.01327032 0.708989
-0.1280553 0.0132671 0.7075084
-0.1299777 0.01405058 0.707422
-0.1308134 0.01480431 0.7056304
-0.1247741 0.01257439 0.707324
-0.1228186 0.01643449 0.7013561
-0.1166803 0.01465581 0.7016625
-0.1121006 0.01551716 0.6982753
-0.1117375 0.01305826 0.7023869
-0.1078599 0.01115632 0.7053791
-0.106477 0.0106165 0.7067155
-0.108075 0.01065736 0.7067721
-0.1243097 0.01573007 0.7029391
-0.1095713 0.01185353 0.7045413
-0.1105809 0.01151854 0.706301
-0.1259313 0.01185277 0.7098438
-0.107857 0.01202008 0.7038366
-0.1063189 0.01249584 0.7031686
-0.1050484 0.009433951 0.7091173
-0.1090726 0.01111579 0.7060574
-0.1172881 0.01184993 0.7068675
-0.1175966 0.01325091 0.7044977
-0.1194398 0.01282847 0.7055209
-0.1195319 0.01189641 0.7070099
-0.1239364 0.01133705 0.7098799
-0.1187318 0.01124238 0.7086835
-0.1097872 0.01030601 0.7096014
-0.1165183 0.01056143 0.7092636
-0.1092876 0.01110329 0.7076702
-0.1077284 0.01014304 0.7084463
-0.120657 0.0101283 0.7112283
-0.1200753 0.01076512 0.7097015
-0.1145755 0.01083477 0.707943
-0.1307703 0.0009289236 0.732371
-0.129741 -0.0001998171 0.7344512
-0.1309804 -0.001587643 0.7368793
-0.1079093 0.009077596 0.7111056
-0.1252355 0.01073474 0.7117731
-0.1235917 0.009531979 0.7132457
-0.1506645 -0.01795669 0.7091802
-0.1496982 0.005089491 0.711571
-0.1500047 -0.01429323 0.7149222
-0.1497438 -0.01519554 0.7131919
-0.1518024 -0.01721194 0.7140271
-0.1512315 -0.01892745 0.711042
-0.1500699 -0.01720166 0.7123553
-0.1499425 -0.01559109 0.7118377
-0.1497651 -0.01711549 0.7109113
-0.1575963 -0.02515581 0.7065268
-0.1472996 -0.001343729 0.7099732
-0.1470454 -0.0009981821 0.71245
-0.1144708 -0.007431753 0.7457597
-0.1372011 0.01319458 0.7108718
-0.1491459 0.008506536 0.7131459
-0.1176399 0.008199668 0.7146193
-0.1192427 0.00939652 0.7128664
-0.1290599 0.011062 0.7128282
-0.1313802 0.01134466 0.7126707
-0.1343478 -0.002694052 0.7392114
-0.1336665 0.001357808 0.7300431
-0.1476651 -0.0008685261 0.7377496
-0.142009 0.0001991108 0.7286896
-0.1432653 -0.0003960373 0.7293587
-0.1369348 -0.0007780823 0.7319459
-0.1357614 -0.0007966329 0.733582
-0.1268833 -0.007807567 0.7490497
-0.1291588 -0.01053314 0.7541153
-0.1298207 -0.006029926 0.7457001
-0.1397737 -0.001805349 0.7372914
-0.135805 -0.002456808 0.7384607
-0.1372717 -0.001439118 0.7344471
-0.1385674 -0.0008338657 0.7329392
-0.1344643 -0.009084289 0.7514884
-0.1342423 -0.007560699 0.748225
-0.1331833 -0.006058052 0.7458872
-0.1317861 -0.004643547 0.7429758
-0.1465162 -0.01524563 0.762401
-0.1384042 -0.02913142 0.7883154
-0.1332826 -0.001439263 0.7360601
-0.1356853 -0.01155368 0.7572159
-0.1504491 -0.01266898 0.7593704
-0.1369488 -0.004434835 0.7431086
-0.1354053 -0.005694821 0.7448953
-0.1373538 -0.005772311 0.7461576
-0.1367845 -0.007325957 0.7488757
-0.1374582 -0.003114832 0.7401195
-0.1350844 0.0002530304 0.7317613
-0.1353108 -0.003489947 0.7408134
-0.1050701 0.006117825 0.717829
-0.1215296 -0.007271893 0.7468703
-0.1343899 -0.001922794 0.7376032
-0.1311674 -0.0030955 0.7400591
-0.133291 -0.003691979 0.7406762
-0.1354885 -0.001534905 0.7358543
-0.1330447 0.001083564 0.7323036
-0.128883 -0.00265162 0.7388564
-0.1267039 -0.001674439 0.7372446
-0.1263972 -0.003698519 0.7406203
-0.1319644 -0.000230996 0.7343113
-0.1281955 0.001092088 0.7322758
-0.1299204 0.001985672 0.7307217
-0.1304877 0.002793686 0.7289256
-0.1285174 0.00247116 0.7293751
-0.1311075 0.003600289 0.7267525
-0.127683 -0.0003605211 0.7348441
-0.1336862 0.001064048 0.727235
-0.1323735 0.002677381 0.7284592
-0.1317963 0.002220286 0.7306478
-0.1329699 0.002950905 0.7265907
-0.1249148 -0.0002142081 0.734011
-0.1274202 0.003390902 0.7269889
-0.1260277 0.001865608 0.7299553
-0.1222516 0.002870811 0.7265915
-0.1156494 0.002152487 0.7270114
-0.13045 0.004711798 0.7247065
-0.1256587 0.009857353 0.7139553
-0.1132837 0.00421535 0.7227087
-0.1187598 0.004899579 0.722538
-0.1230476 0.004089096 0.7235485
-0.1242058 0.003781309 0.7248144
-0.131653 0.009283899 0.7163149
-0.1244997 0.006461567 0.7201031
-0.1219305 0.007713591 0.7168744
-0.1261019 0.004376015 0.7248059
-0.1219009 0.008469568 0.7146588
-0.1214668 0.009408726 0.7129323
-0.1194723 0.00751305 0.7161005
-0.1337023 0.01173457 0.7127894
-0.1156548 0.006765165 0.717618
-0.1222407 0.005257059 0.7219265
-0.1303679 0.01021664 0.714615
-0.1134765 0.009517878 0.7111384
-0.1109645 0.009228857 0.7117867
-0.1088338 0.008108099 0.7146715
-0.1103398 0.006132337 0.7186294
-0.1279341 0.00978302 0.7147795
-0.1266684 0.007207317 0.7187883
-0.1288844 0.007651935 0.7183543
-0.1324127 0.007451647 0.7196118
-0.1342603 0.006745063 0.7212892
-0.1309355 0.007990696 0.7179936
-0.1302889 0.007205741 0.7201487
-0.1281288 0.006667059 0.7205097
-0.1242481 0.005308128 0.7216997
-0.1260032 0.006161204 0.7210337
-0.1517659 0.00203978 0.7343792
-0.141315 -0.002215391 0.7382029
-0.1395713 -0.002808173 0.7391559
-0.1426865 -0.001537891 0.7371055
-0.1424321 -0.002951038 0.72312
-0.1432162 -0.004472183 0.7217917
-0.1438768 -0.003729897 0.7404428
-0.1528406 0.0009771418 0.7365835
-0.1550664 0.002204745 0.7352558
-0.1439241 -5.61655e-05 0.7338054
-0.1441202 -0.0008631623 0.7361421
-0.1598146 -0.00263833 0.7445455
-0.1615245 -0.003597875 0.7467173
-0.1538412 -0.0009025238 0.7409447
-0.1516031 -0.001697442 0.7406238
-0.1472407 0.01011869 0.7164401
-0.1566911 -0.0004258198 0.7237973
-0.1568861 -0.00330025 0.7233905
-0.1534438 0.004632326 0.7305405
-0.1541555 0.0005636087 0.7388402
-0.1545812 0.001399727 0.7368696
-0.1554639 0.004086504 0.7315412
-0.1618815 0.002896753 0.7360881
-0.1454932 0.0007652912 0.7325901
-0.1575891 0.004767935 0.7305285
-0.1471364 0.002125823 0.7313503
-0.1486692 0.001252616 0.7332432
-0.1561692 -0.0002660962 0.7409163
-0.1461167 -0.0004992193 0.7350957
-0.1572818 -0.004887852 0.7469863
-0.157566 -0.003244744 0.744904
-0.1579468 -0.001559595 0.7429233
-0.1571764 0.002634276 0.7355034
-0.1535892 0.002910487 0.7338784
-0.1490671 0.003033392 0.7292852
-0.1498748 0.002395489 0.7322159
-0.159423 0.003366785 0.7346054
-0.1551706 0.005265011 0.729368
-0.148326 0.009318188 0.7147098
-0.1464507 0.008388268 0.7180557
-0.1485845 0.006954789 0.7143568
-0.1443603 -0.005083357 0.7190612
-0.1447393 -0.007714091 0.7196437
-0.1490928 -0.002398503 0.7404266
-0.1544191 1.104064e-05 0.7261512
-0.1563981 0.00303374 0.7241431
-0.1457244 -0.003394034 0.7410592
-0.1514699 -0.002462333 0.7246798
-0.1519058 0.001657025 0.7256315
-0.1761248 -0.00838973 0.7562897
-0.1816839 -0.003298415 0.7516538
-0.1625767 -0.005286595 0.7498702
-0.1624559 -0.01128507 0.7573029
-0.1667899 -0.009194707 0.7551556
-0.1596142 -0.005473018 0.7484763
-0.1571375 -0.006467584 0.7493949
-0.1581265 -0.01095201 0.7563522
-0.1549133 -0.01218351 0.7571716
-0.1434354 -0.008239847 0.7518168
-0.1696857 -0.003379647 0.7485003
-0.1731793 -0.001454215 0.7460963
-0.1768353 0.0002293116 0.744337
-0.1761416 -0.001755954 0.7476542
-0.1712589 -0.00919945 0.7563712
-0.1569249 -0.008108798 0.7519881
-0.1527652 -0.003205261 0.7192425
-0.1496607 -0.003867867 0.719532
-0.1513691 -0.002717119 0.721441
-0.1474385 -0.003192612 0.7415425
-0.145519 -0.005893887 0.7473955
-0.1443628 -0.00550815 0.7461035
-0.1469554 -0.008170698 0.7514248
-0.1478772 -0.007173708 0.74959
-0.148438 -0.005136155 0.7459759
-0.1506522 -0.004663275 0.7454232
-0.1488907 -0.003751273 0.7433133
-0.1403376 -0.00657354 0.7484392
-0.1440345 -0.006375453 0.7486715
-0.1422419 -0.005324418 0.746274
-0.1419816 -0.005055377 0.7443318
-0.1461767 -0.006558552 0.749011
-0.1391055 -0.001188558 0.7354071
-0.1435268 -0.006527825 0.7226827
-0.1439138 -0.006045566 0.7207579
-0.1416781 -0.003660847 0.7402925
-0.139462 -0.003823854 0.7417167
-0.1414948 -0.004465773 0.7426879
-0.1465675 -0.0007062359 0.7141587
-0.1492505 -0.006543735 0.748633
-0.1578883 -0.01698291 0.7168636
-0.1548641 -0.01808824 0.7151175
-0.1600473 -0.01845249 0.71846
-0.1615509 -0.02015262 0.7200409
-0.1541527 -0.01999952 0.7139833
-0.1540538 -0.02167688 0.7124037
-0.168617 -0.02251464 0.7269438
-0.1448136 -0.01031461 0.7185002
-0.1443056 -0.01038049 0.7199711
-0.1456509 -0.01255882 0.7183225
-0.141674 -0.0009567887 0.7252236
-0.1478132 -0.01268395 0.7151551
-0.1465401 -0.01200369 0.7164083
-0.1441687 -0.008060073 0.7210025
-0.1499529 -0.01213135 0.7196752
-0.148834 -0.0128952 0.7173566
-0.1497466 -0.009467515 0.7202151
-0.148882 -0.006977157 0.7206161
-0.1470439 -0.007913069 0.7205063
-0.1464874 -0.009374181 0.7203979
-0.1480804 -0.01097807 0.7195576
-0.146182 -0.005449304 0.7456845
-0.1471782 -0.005962501 0.7477492
-0.1474027 -0.01099242 0.7154629
-0.1856971 0.001308332 0.7440144
-0.1861857 -0.0007133827 0.7480768
-0.1809264 0.00170559 0.7424645
-0.1851026 0.003311669 0.7402566
-0.2217684 0.02251905 0.7050877
-0.2234379 0.02406494 0.704046
-0.2255934 0.023946 0.703779
-0.2145073 0.01100017 0.6968864
-0.2215568 0.01865111 0.7063147
-0.1762242 0.000666658 0.7285259
-0.1749674 0.003042425 0.7293071
-0.2304264 0.02413289 0.7049448
-0.2264371 0.0232316 0.7084436
-0.2250594 0.0229612 0.7117707
-0.2351007 0.01881676 0.7169234
-0.2346859 0.01769124 0.7193045
-0.2334619 0.01717452 0.7182273
-0.2402629 0.01943368 0.7165598
-0.2418261 0.02127908 0.712801
-0.2371695 0.02113637 0.7128558
-0.2375458 0.01830995 0.7189362
-0.2325853 0.02011184 0.7153257
-0.2313438 0.02082442 0.7135626
-0.2331089 0.02143805 0.7112978
-0.230933 0.01800841 0.7159036
-0.2307467 0.01943534 0.7145847
-0.2261333 0.0231079 0.7146833
-0.2260411 0.01895474 0.7123529
-0.2219405 0.01880641 0.710286
-0.2220822 0.01944896 0.7081475
-0.2575678 0.01823269 0.7243255
-0.2553366 0.01751855 0.7261624
-0.2746766 0.05309252 0.6641889
-0.2730561 0.04805645 0.6712333
-0.2796467 0.04949495 0.6705713
-0.2191518 0.04621559 0.6619635
-0.2228146 0.03742329 0.6780721
-0.2260333 0.03756518 0.6789416
-0.2220658 0.03857439 0.6765137
-0.2244738 0.03871212 0.6762855
-0.2248744 0.04037511 0.673951
-0.2243582 0.04206519 0.6717696
-0.2278753 0.04165158 0.6721818
-0.2241708 0.04309641 0.6699771
-0.2217818 0.04233982 0.6704497
-0.2260172 0.04404448 0.6677367
-0.2306431 0.04685047 0.6647756
-0.2230284 0.04327311 0.6687417
-0.259849 0.04659018 0.6723539
-0.2685029 0.04202587 0.6807484
-0.2641031 0.02144223 0.7185735
-0.2596153 0.02140556 0.7173849
-0.2228503 0.04384819 0.6666969
-0.2254716 0.04564653 0.6644177
-0.2236184 0.04731662 0.6620132
-0.221899 0.04511202 0.6645132
-0.2187551 0.04463624 0.6643071
-0.220126 0.04349009 0.6664627
-0.2212096 0.04799711 0.6605662
-0.2209512 0.04306328 0.6684278
-0.2186155 0.04746448 0.6600398
-0.2166619 0.04742025 0.6601842
-0.2245328 0.04966772 0.6578664
-0.2117774 0.03994036 0.6724516
-0.2479624 0.04423523 0.6729627
-0.252842 0.05069195 0.6647444
-0.21098 0.04288566 0.6658191
-0.2062882 0.0413929 0.6671844
-0.2090628 0.04141229 0.6682767
-0.207936 0.04225365 0.665653
-0.2133955 0.04137734 0.6699787
-0.2035912 0.0409292 0.6673253
-0.2096564 0.03973803 0.6737337
-0.2046269 0.03880693 0.6757581
-0.2058401 0.03776366 0.6781984
-0.208036 0.03881918 0.6772822
-0.2089487 0.03774967 0.6792951
-0.2037997 0.03958924 0.6731778
-0.2012178 0.03880681 0.6738461
-0.2071808 0.03952763 0.6748517
-0.1985877 0.03990446 0.6695293
-0.2160672 -0.001726972 0.6972811
-0.2159352 -0.002638322 0.6961476
-0.2027044 0.04018518 0.6701248
-0.2064082 0.04002786 0.6721552
-0.2113636 0.04073844 0.6702049
-0.2090527 0.04036274 0.6710983
-0.1959004 0.03908476 0.6701377
-0.1984001 0.03908797 0.6718752
-0.1888488 0.03774975 0.6673179
-0.1837649 0.03842955 0.6624296
-0.1830624 0.04091436 0.6623629
-0.1868419 0.03608394 0.6657321
-0.1883786 0.0359689 0.6680161
-0.1821191 0.03949767 0.6615481
-0.1821199 0.0380327 0.6613131
-0.1963257 0.04543629 0.6588487
-0.1983223 0.03805884 0.6737146
-0.1982649 0.047506 0.6565645
-0.2049277 0.04191309 0.6649505
-0.2069891 0.04303758 0.6637713
-0.2122797 0.04932806 0.6556795
-0.2093426 0.04708132 0.6584953
-0.210827 0.0473474 0.6591084
-0.2140635 0.04945889 0.6569656
-0.2174537 0.04927378 0.6581897
-0.2186858 0.05086228 0.6547544
-0.2138475 0.05062257 0.6544262
-0.2142331 0.04841085 0.6591164
-0.2158219 0.04836475 0.6594949
-0.2110498 0.05344349 0.649066
-0.2027873 0.05626319 0.6425601
-0.2030928 0.05537565 0.6438676
-0.1999077 0.04807015 0.6556484
-0.2023055 0.04807973 0.656148
-0.2052863 0.05303739 0.6482596
-0.2050522 0.05562235 0.6443271
-0.2044574 0.04771105 0.6575016
-0.1938836 0.0473137 0.6562647
-0.1911152 0.0468146 0.6563849
-0.2007255 0.04610269 0.6589426
-0.2004323 0.04700914 0.6573636
-0.1884519 0.0468668 0.6556013
-0.1917209 0.04880812 0.6531711
-0.1900917 0.04807455 0.6543678
-0.2363419 0.05452468 0.6523685
-0.2415108 0.05365311 0.6554322
-0.1859986 0.04653786 0.6550058
-0.1896618 0.05021337 0.6498412
-0.1897001 0.04906882 0.6522183
-0.1897938 0.04444676 0.6589581
-0.1929029 0.04610274 0.6580722
-0.1947803 0.04606653 0.6578866
-0.1921384 0.04478768 0.6597708
-0.1903787 0.04361879 0.6607713
-0.1844212 0.04475876 0.6559976
-0.27197 0.05693989 0.65685
-0.2366405 0.04632023 0.6683908
-0.2013986 0.05465642 0.6449828
-0.1996707 0.05399488 0.6457204
-0.1992667 0.05546282 0.6438752
-0.2586032 0.054425 0.6599165
-0.2495571 0.05208162 0.6611031
-0.2803289 0.06397276 0.6435457
-0.2035739 0.05054682 0.6524505
-0.204688 0.0500376 0.6536249
-0.1923697 0.05223339 0.6465625
-0.1844013 0.05122372 0.6458806
-0.2082244 0.05256389 0.6500447
-0.2405581 0.06050788 0.6416872
-0.1818505 0.04747 0.6515714
-0.2254071 0.05427679 0.6498057
-0.2330654 0.04241309 0.6728813
-0.2537473 0.05716236 0.6537645
-0.2458499 0.05278476 0.6579594
-0.2662588 0.06022972 0.6486928
-0.2585384 0.05737358 0.6534343
-0.1699792 0.05273318 0.6403733
-0.1838122 0.05599828 0.6374791
-0.1427207 0.04618502 0.6469432
-0.1432942 0.04512318 0.6496899
-0.1471671 0.04673169 0.6470676
-0.1936905 0.04868731 0.6540785
-0.1917001 0.05371684 0.6446601
-0.193957 0.05347094 0.6454932
-0.1908988 0.05132645 0.6479753
-0.1795647 0.04986683 0.6480306
-0.1816074 0.05291293 0.6427495
-0.1819311 0.05394747 0.6414915
-0.2063717 0.05496013 0.6459098
-0.1828561 0.05055828 0.6466929
-0.1805545 0.05080601 0.6468911
-0.1856341 0.04866245 0.6520875
-0.1852396 0.04754053 0.6536319
-0.1886771 0.05116404 0.6475836
-0.1763817 0.05202514 0.6440136
-0.1737293 0.05020073 0.6465861
-0.1833722 0.05157363 0.6450366
-0.1847915 0.05205984 0.644668
-0.1858247 0.051408 0.6457483
-0.1876212 0.04937523 0.6512221
-0.1732657 0.05562991 0.6364266
-0.1972746 0.0504408 0.6512179
-0.199326 0.05003718 0.6527294
-0.2087261 0.0557888 0.6451488
-0.2068807 0.05637687 0.6443868
-0.1971973 0.05539789 0.6435297
-0.206447 0.05000153 0.6543818
-0.2105171 0.04977186 0.6544787
-0.2086598 0.05099461 0.6529019
-0.2084618 0.04917015 0.6554451
-0.1798729 0.04747812 0.650607
-0.1839692 0.04893367 0.6506556
-0.1854033 0.04995574 0.6488832
-0.1917384 0.0503534 0.6495573
-0.1933378 0.04998796 0.6505662
-0.1931207 0.04933007 0.6522828
-0.1986172 0.0526626 0.6471286
-0.1969327 0.05151976 0.6485924
-0.2015329 0.05051063 0.6524418
-0.1873309 0.05026802 0.6492198
-0.1866448 0.05082001 0.6473258
-0.1837819 0.04616562 0.6543016
-0.1869113 0.04536881 0.656597
-0.1818176 0.04587032 0.6531448
-0.1837184 0.04740248 0.6525627
-0.1778693 0.04938036 0.6485873
-0.1818847 0.04463161 0.6549653
-0.1824193 0.05211327 0.6438544
-0.1837705 0.05220161 0.6438081
-0.1806192 0.05237564 0.6439024
-0.1746524 0.05135597 0.6445033
-0.1802178 0.05606641 0.6373264
-0.191391 0.05418507 0.6422634
-0.2073541 0.05863363 0.6386425
-0.1937489 0.05670567 0.6370513
-0.2013295 0.05578271 0.6430968
-0.2057633 0.056646 0.6433625
-0.2087617 0.05734107 0.64206
-0.2071337 0.05791815 0.6410583
-0.2051367 0.05815905 0.6401139
-0.2015938 0.05286018 0.6473211
-0.2029028 0.05147915 0.6502891
-0.2107011 0.05836925 0.6399958
-0.2103186 0.05757357 0.6412486
-0.2026682 0.05774387 0.6392749
-0.2018207 0.0565991 0.6413647
-0.200521 0.05765887 0.6380715
-0.2055249 0.05722882 0.6419576
-0.1986799 0.05757599 0.6379855
-0.1892431 0.05518434 0.638907
-0.193333 0.05487291 0.640815
-0.1828223 0.05495193 0.6400685
-0.1853989 0.05546281 0.638454
-0.18378 0.05538872 0.6388879
-0.1914183 0.05581177 0.6378275
-0.1870043 0.05493181 0.6398243
-0.1962207 0.05304526 0.646356
-0.1847739 0.05278557 0.6430556
-0.1899317 0.05357707 0.6436087
-0.1881392 0.05310015 0.6437739
-0.1949846 0.05609395 0.639126
-0.20059 0.05675028 0.6399552
-0.1840038 0.05386361 0.6415614
-0.2038243 0.05419499 0.6456227
-0.1974586 0.05668628 0.6396288
-0.186282 0.05245379 0.6441076
-0.1876464 0.0516649 0.6455721
-0.1898792 0.05236895 0.6456414
-0.1890042 0.05432604 0.6415631
-0.1863136 0.05366154 0.6419264
-0.2043008 0.05635633 0.6429247
-0.1956222 0.05465845 0.6443839
-0.212762 0.05192384 0.6516352
-0.2160174 0.05140268 0.6523817
-0.2196718 0.05277956 0.6506922
-0.2220649 0.05940583 0.6412644
-0.2122918 0.0581631 0.6409906
-0.2107824 0.05657749 0.6430306
-0.2084139 0.05680975 0.6436616
-0.2116045 0.054889 0.6457474
-0.2152729 0.05366117 0.648128
-0.236561 0.04964887 0.6626081
-0.2110535 0.01065126 0.6610047
-0.2093118 0.01234799 0.6606685
-0.2100459 0.0117897 0.6595595
-0.2017401 0.02457744 0.6743574
-0.2015801 0.02135786 0.6696942
-0.2060035 0.01942121 0.6739895
-0.2075103 0.006749267 0.659008
-0.2068556 0.001976624 0.6623298
-0.212357 0.005101694 0.6622654
-0.2122717 0.003762861 0.6644878
-0.2120171 0.006426999 0.6640604
-0.209299 0.0103596 0.6665605
-0.2096047 0.008259189 0.6658962
-0.2120421 0.009139623 0.662643
-0.2003242 0.003130806 0.6590635
-0.2073311 0.01283882 0.666139
-0.1965666 0.02405137 0.6631338
-0.19866 0.02294698 0.6662403
-0.1951436 0.02517944 0.6663261
-0.2047449 0.01868637 0.6634752
-0.2019015 0.02021164 0.6653133
-0.2028204 0.02045786 0.6616967
-0.2092532 0.01440897 0.6599122
-0.2082473 0.01358964 0.6622516
-0.2071712 0.003609486 0.6612554
-0.2052216 0.003427502 0.6606882
-0.1992269 0.002130461 0.6596038
-0.2055577 0.01730559 0.6614399
-0.2067593 0.01623434 0.6635899
-0.1832794 0.03196428 0.6611295
-0.1907376 -0.0005096339 0.6620114
-0.1909523 -0.001634062 0.6638709
-0.1832018 0.03409025 0.6613878
-0.1925119 0.0345283 0.6719561
-0.1893553 0.03438346 0.6694107
-0.185525 0.03095281 0.6633636
-0.1887959 0.03048868 0.6677083
-0.1880514 0.03268664 0.668352
-0.1869898 0.03189495 0.666912
-0.1873786 0.03438456 0.6676342
-0.1864091 0.03350257 0.6662645
-0.1896134 0.02835497 0.6662504
-0.1886944 0.02792989 0.664476
-0.1906168 0.02691475 0.6647297
-0.1869524 0.02938744 0.664005
-0.1863276 0.03153717 0.6651781
-0.191352 0.02874937 0.6682757
-0.1938363 0.02685746 0.6683707
-0.1941894 0.02869263 0.6707917
-0.188216 0.02743845 0.662706
-0.1829198 0.02768227 0.6610056
-0.1826193 0.02514655 0.6610619
-0.1863866 0.02495776 0.6615613
-0.1859459 0.02200826 0.6584257
-0.1832815 0.0236609 0.6600487
-0.1844512 0.02995129 0.6613623
-0.1874544 0.02649987 0.6613795
-0.1898139 0.02574731 0.661394
-0.1852081 0.02734015 0.6614804
-0.1919523 0.02541167 0.6616333
-0.186694 0.02345455 0.659964
-0.1844141 0.03271994 0.6625252
-0.1796845 0.02884736 0.65852
-0.1809014 0.02844784 0.659874
-0.1825511 0.03025936 0.6601707
-0.181053 0.03690528 0.6604501
-0.1816082 0.03492895 0.6602697
-0.1805458 0.03584991 0.658798
-0.1818328 0.0325587 0.6598434
-0.1878477 0.01249023 0.65578
-0.1904544 0.01779225 0.6561426
-0.1904389 0.01525215 0.6548279
-0.1804981 0.0338073 0.6585634
-0.1879306 0.0149573 0.6546761
-0.1821662 -0.00354664 0.6517227
-0.187105 -0.0006089248 0.6583015
-0.1859445 -0.003194763 0.6584658
-0.1860892 -0.002094001 0.6562126
-0.1884526 0.001898644 0.6550127
-0.1863184 0.0009560038 0.6557662
-0.191241 0.003011653 0.6558571
-0.1936094 0.002783769 0.6571863
-0.195152 0.004271597 0.6572639
-0.1975425 0.02278407 0.6578989
-0.1959826 0.02308827 0.6584101
-0.1887099 0.02211838 0.6584355
-0.1872729 0.02054737 0.6570306
-0.1854706 0.01250474 0.654083
-0.1846993 0.01096701 0.6540481
-0.1882829 0.01965385 0.6556529
-0.1863879 0.0191741 0.655287
-0.1833511 0.008171702 0.6536841
-0.1823046 0.009520195 0.6519452
-0.1847383 0.009153071 0.6547764
-0.1847436 0.005092318 0.6529912
-0.1933928 0.004319781 0.655601
-0.1862481 0.001782753 0.6546748
-0.1848101 0.0003809605 0.6554084
-0.1830093 -0.002354599 0.652655
-0.1801163 -0.0005779256 0.6567053
-0.1815007 0.02658865 0.659909
-0.1806206 0.02672387 0.6583714
-0.1820212 0.007639928 0.6522138
-0.1835909 0.003639126 0.6521798
-0.1828708 0.004928297 0.6519959
-0.1819429 0.006177275 0.6522171
-0.1788988 -0.001774174 0.6521592
-0.1783396 0.005177005 0.6517725
-0.1825866 0.01154158 0.6520566
-0.1857115 0.01666206 0.6540018
-0.1828067 0.01651361 0.653215
-0.1820068 0.0145696 0.6522574
-0.1810542 0.01829973 0.6528704
-0.201547 0.01915512 0.6551634
-0.200494 0.02056273 0.6561201
-0.2090326 0.009342362 0.6572339
-0.2406379 0.03553027 0.6853117
-0.2409515 0.03835307 0.6797221
-0.2304116 0.03765051 0.6803256
-0.2032223 0.01713327 0.6523358
-0.2097172 0.01436917 0.6549821
-0.2100144 0.01337659 0.6563082
-0.2092883 0.01182695 0.6578738
-0.2091271 0.01116301 0.65606
-0.1987453 0.02024517 0.6559711
-0.2070744 0.01688922 0.656378
-0.2042489 0.0180837 0.6567293
-0.1898256 0.004429053 0.6529939
-0.2087102 0.01044282 0.6546025
-0.2089012 0.01247046 0.6547888
-0.1828024 0.01315847 0.652456
-0.1813388 0.01289324 0.6520289
-0.210921 -0.002950665 0.6696871
-0.1830357 -0.005620813 0.6585874
-0.185184 -0.005017735 0.659967
-0.1798896 -0.006408213 0.6586393
-0.1821031 -0.006390033 0.6568487
-0.1922282 -0.001035903 0.6628863
-0.1872728 -0.002997231 0.6645317
-0.1853516 -0.003463153 0.6606113
-0.1842415 -0.0007073506 0.6535438
-0.1849352 -0.004760367 0.6581923
-0.1820888 -0.004811479 0.6563931
-0.1836186 -0.004921891 0.6570853
-0.1839596 -0.001838671 0.6547195
-0.1828954 -0.003224827 0.6534951
-0.1812453 -0.002136098 0.6517334
-0.1813181 -0.004748981 0.660787
-0.1801016 -0.009573735 0.6615492
-0.1787999 -0.006357326 0.6615003
-0.1808249 -0.005575876 0.6633931
-0.1836503 -0.005423629 0.6619421
-0.1842995 -0.006585554 0.6659858
-0.1741523 -0.007088342 0.6714079
-0.1754237 -0.00745104 0.6727819
-0.1777482 -0.004823311 0.6715887
-0.1820071 -0.00711346 0.6649044
-0.193073 -0.001800446 0.6644987
-0.1896701 -0.002729431 0.664883
-0.1935582 -0.008146934 0.6731504
-0.1954626 -0.009915714 0.6766728
-0.1933465 -0.03765664 0.6776259
-0.1937029 -0.03959786 0.6774101
-0.195291 -0.04073688 0.6773824
-0.1990018 -0.04179996 0.6763747
-0.1995218 -0.03970579 0.6778795
-0.1989249 -0.008796072 0.6757268
-0.2098146 0.03410225 0.6837573
-0.2098569 0.0354903 0.6826
-0.2080521 0.03497121 0.6829655
-0.2049225 -0.036103 0.6787881
-0.2030926 -0.03737988 0.6781248
-0.2135212 -0.03793116 0.6820058
-0.2349059 0.02517379 0.7032963
-0.2398365 0.02548705 0.7039489
-0.2456892 0.0247758 0.7051058
-0.2134658 -0.03692491 0.687518
-0.211804 -0.03956226 0.6834849
-0.2050776 -0.03903029 0.678083
-0.2093341 -0.04283668 0.6796272
-0.2081056 -0.04194064 0.6810751
-0.2105122 -0.0415891 0.6815752
-0.2075763 -0.0433678 0.6784299
-0.210307 -0.03842759 0.6904074
-0.2142598 -0.03272037 0.6940026
-0.2039194 -0.04327823 0.6809643
-0.2062699 -0.04351258 0.6814317
-0.2121024 -0.04092234 0.6812117
-0.2124811 -0.03974021 0.6810952
-0.2155336 -0.03644725 0.6856873
-0.2108709 -0.04229127 0.6793529
-0.214906 -0.03211927 0.6820862
-0.2174244 -0.03321323 0.6831439
-0.215681 -0.03592013 0.6826714
-0.2133001 -0.0326819 0.6794286
-0.2133944 -0.03067513 0.6812479
-0.2147295 -0.0298077 0.6837299
-0.211398 -0.02752893 0.68284
-0.2110263 -0.02633933 0.682209
-0.2000383 -0.04206824 0.681291
-0.2016761 -0.04147618 0.6825098
-0.2076915 -0.04062787 0.6848738
-0.2058526 -0.04519619 0.6790633
-0.2068471 -0.02300075 0.6868387
-0.2070328 -0.02369067 0.6847298
-0.2054756 -0.02430098 0.6852972
-0.2110191 -0.02478844 0.6845605
-0.2112353 -0.02603186 0.6842169
-0.2067699 -0.02492263 0.6822018
-0.2083234 -0.02390872 0.6845638
-0.2144095 -0.02745424 0.6858495
-0.212832 -0.02107128 0.6913782
-0.2161415 -0.02868064 0.6864952
-0.2131831 -0.02264098 0.6882758
-0.2122404 -0.02162795 0.6890498
-0.2118832 -0.02250202 0.6865574
-0.2099846 -0.02363017 0.6858651
-0.2087468 -0.02260354 0.6876447
-0.2135451 -0.02501822 0.6878723
-0.2117402 -0.02693933 0.6856719
-0.215282 -0.01726995 0.6928912
-0.202833 -0.03804058 0.6873693
-0.2034983 -0.03946295 0.6863567
-0.2028647 -0.03999932 0.684434
-0.2045722 -0.04105067 0.6860175
-0.2036415 -0.03785738 0.6902196
-0.2061299 -0.03389339 0.6950186
-0.2064684 -0.03762385 0.6921574
-0.2060324 -0.02857776 0.6960403
-0.2042279 -0.03193924 0.6947743
-0.2062757 -0.04073092 0.6881191
-0.2071825 -0.02197428 0.6915694
-0.2051831 -0.02342476 0.6907852
-0.2073646 -0.02222371 0.6893499
-0.2149652 -0.01941221 0.6918246
-0.2169283 -0.01239696 0.7034569
-0.2153494 -0.01467704 0.7031435
-0.2155726 -0.01156924 0.7034496
-0.2050261 -0.02515842 0.6925156
-0.204055 -0.02687817 0.6913484
-0.2049779 -0.02574546 0.6897599
-0.2029819 -0.02775658 0.6890226
-0.2042397 -0.02593821 0.6867161
-0.2163824 -0.02255269 0.6924771
-0.2172002 -0.02736561 0.6899084
-0.2189811 -0.02351633 0.6930076
-0.2151249 -0.02215692 0.6897397
-0.2065392 -0.02239025 0.7034763
-0.2063972 -0.02446346 0.6998099
-0.2195415 -0.01178824 0.7015375
-0.2087949 -0.02299352 0.6970739
-0.2043685 -0.02547904 0.6946976
-0.2192103 -0.01216012 0.7000071
-0.2189417 -0.01497489 0.7000021
-0.2062965 -0.01797116 0.6949717
-0.2063603 -0.02048221 0.6956509
-0.2045382 -0.02261886 0.6970719
-0.2179517 -0.01890771 0.6974298
-0.2180055 -0.01636426 0.6978532
-0.2137091 -0.02015357 0.7011387
-0.2132626 -0.02683806 0.6975585
-0.2078306 -0.02000204 0.6939161
-0.2159156 -0.02399128 0.6963881
-0.2183458 -0.0147822 0.6976051
-0.2164795 -0.01515518 0.6950923
-0.21774 -0.01489609 0.6958735
-0.2158379 -0.01611967 0.6942263
-0.2153557 -0.0143123 0.6940525
-0.2183264 -0.01283119 0.6989092
-0.2167782 -0.01372556 0.697958
-0.2137224 0.002953296 0.6964282
-0.2153628 0.02193503 0.6967218
-0.2163913 0.0216735 0.6984829
-0.2181163 -0.01059296 0.6999002
-0.2188268 -0.008524477 0.7004975
-0.2193645 -0.006579865 0.7008811
-0.2319296 0.02463871 0.7032766
-0.2173362 0.01313957 0.7012211
-0.2247547 0.02611333 0.7006409
-0.2258537 0.02640331 0.6995254
-0.2286598 0.02592504 0.7006413
-0.2293886 0.02697338 0.698226
-0.2273704 0.02762609 0.6974025
-0.2273106 0.02653252 0.6991083
-0.2260563 0.0269709 0.6983032
-0.2245467 0.02698705 0.6988524
-0.222768 0.02721072 0.7002856
-0.2272621 0.02465495 0.7026857
-0.2297058 0.02506975 0.7027671
-0.2265403 0.02577649 0.700841
-0.2251187 0.02493884 0.7023229
-0.2283482 0.02433507 0.7046906
-0.2158379 0.01427168 0.7002199
-0.2266284 0.03115419 0.6890727
-0.2272366 0.03043578 0.6913979
-0.2169615 0.002678157 0.7029808
-0.2158993 0.002970338 0.7014551
-0.2155254 0.004567268 0.7006695
-0.2149714 0.006426468 0.7003837
-0.2143821 0.004901342 0.6990384
-0.2129641 0.006031635 0.6943611
-0.2140105 0.0004413645 0.69445
-0.2149936 0.00832037 0.7001683
-0.2169015 -0.001917721 0.6991833
-0.2159428 0.009038536 0.701555
-0.2166107 0.0007697438 0.7009712
-0.2151204 -0.001419379 0.6956196
-0.2149831 0.02433634 0.6943191
-0.2156505 0.02820306 0.6939188
-0.2153192 0.0002289575 0.6977385
-0.2152349 -0.002975393 0.6944301
-0.2150005 0.01126329 0.6987693
-0.2159613 0.01214949 0.6998806
-0.2145751 0.01774509 0.698648
-0.2138202 0.0179017 0.6970338
-0.2135414 0.01583081 0.6976487
-0.2055133 -0.006880116 0.6836891
-0.2126593 0.01437835 0.6925018
-0.2125821 0.01646051 0.6885897
-0.2112743 0.01102849 0.6888677
-0.2185944 0.03215218 0.6862186
-0.2152608 0.03006847 0.6930432
-0.2140446 0.02803322 0.6922542
-0.2265789 0.02942688 0.6935404
-0.2148239 0.00724967 0.6987805
-0.2131041 0.01668767 0.6952878
-0.2141141 0.0195315 0.6956775
-0.2146458 0.008296449 0.6963977
-0.2296805 0.02962336 0.693505
-0.2185268 -0.007359581 0.6995223
-0.2245242 0.02931152 0.6936664
-0.2252274 0.02779124 0.6968139
-0.2272308 0.02866823 0.6954516
-0.2670597 0.03616972 0.690193
-0.2267227 0.03546694 0.6823714
-0.2118185 0.0279372 0.6873755
-0.2091717 0.01949051 0.6803498
-0.2115676 0.03708529 0.6800997
-0.2134136 0.0376963 0.6789817
-0.2205543 0.03507973 0.6818748
-0.2206868 0.03651782 0.6792212
-0.2234619 0.03452807 0.6837901
-0.2264755 0.03289745 0.6861586
-0.211903 0.03576712 0.681834
-0.2225167 0.02944216 0.6937562
-0.2215198 0.02969529 0.6920429
-0.2493866 0.02141682 0.7141182
-0.2521159 0.02033691 0.7173495
-0.2558185 0.02099443 0.7171534
-0.2738421 0.03185884 0.7013088
-0.2170819 -0.0339992 0.6859885
-0.2172107 -0.03100335 0.6866896
-0.2118585 0.006404121 0.6901081
-0.2123212 0.002904239 0.6925055
-0.2143619 7.741286e-05 0.6908108
-0.209894 -0.004070321 0.6776283
-0.2102856 0.006102133 0.6844543
-0.2139693 0.02294938 0.6926264
-0.2145976 0.0220179 0.6946756
-0.2216698 0.03149332 0.6884093
-0.2209987 0.03384737 0.6845858
-0.2226909 0.03054294 0.6903678
-0.224191 0.03143128 0.6884961
-0.2130231 0.02787623 0.6898907
-0.2134965 0.02511468 0.6909695
-0.2235741 0.02976836 0.6920773
-0.219441 0.03136372 0.6883202
-0.2205195 0.03242972 0.6864854
-0.219443 0.03311651 0.6849346
-0.2148713 -0.0024939 0.6901713
-0.2141029 -0.002035255 0.6880112
-0.2140996 -0.007504398 0.6932023
-0.2136218 -0.006809252 0.6913986
-0.2129161 0.02135634 0.6897104
-0.2116457 0.02005163 0.6855425
-0.2137782 -0.004271547 0.6903093
-0.2145464 -0.003425736 0.692207
-0.2129796 -0.01089291 0.6927298
-0.2129679 -0.005601868 0.6887754
-0.2136434 -0.005674076 0.6906787
-0.2126786 -0.005572193 0.6863969
-0.2124778 -0.004133783 0.6859396
-0.2113392 -0.005748248 0.6840723
-0.2123574 -0.002316629 0.6860083
-0.2110201 -0.006819551 0.6817633
-0.2105516 -0.004156012 0.6796362
-0.2114417 -0.001669733 0.6783875
-0.2088661 -0.005274024 0.6765062
-0.2114975 -0.0004512176 0.6737418
-0.2108674 -0.002788125 0.6736529
-0.2117054 0.001197694 0.6764443
-0.2093168 -0.004103676 0.6749394
-0.2102737 -0.00519597 0.6784352
-0.2108706 -0.004153443 0.6813359
-0.2121768 -0.005543703 0.6802742
-0.2114234 0.0001902735 0.6836042
-0.2121788 -0.003269217 0.6824247
-0.2114993 -0.004943053 0.6823955
-0.2116167 -0.007391015 0.6895539
-0.2106213 0.03050909 0.6852734
-0.2120289 0.001728375 0.6800276
-0.2074249 0.03343972 0.6833471
-0.2117551 0.03322118 0.6845301
-0.2108729 -0.006384619 0.6853352
-0.2100048 0.02498741 0.6843154
-0.211904 0.03192339 0.6856991
-0.2124672 -0.009371808 0.6919019
-0.2048814 0.0326426 0.6821998
-0.2066939 0.0312944 0.6830019
-0.2043261 0.03609814 0.6796107
-0.205113 0.02933298 0.6812924
-0.2151805 -0.005952739 0.6944582
-0.2149825 -0.004523698 0.6935356
-0.2144037 -0.005888086 0.6924614
-0.2161048 -0.004217453 0.6957724
-0.2129118 -0.008029648 0.6912435
-0.1971553 -0.0106956 0.6926086
-0.2005717 -0.009476036 0.6818951
-0.2018675 -0.008113666 0.682609
-0.193427 -0.01130586 0.692167
-0.1952945 -0.01081382 0.6922064
-0.1786345 -0.01598558 0.6901568
-0.1810341 -0.008752206 0.6822004
-0.183125 -0.008282815 0.6823532
-0.1867995 -0.006518389 0.6813854
-0.1852818 -0.007856889 0.6828883
-0.1949044 0.03149635 0.6734068
-0.1980412 0.02834174 0.6741381
-0.2001629 0.03499522 0.6773947
-0.2026849 0.03364827 0.680134
-0.1962818 0.03420934 0.6749274
-0.2029218 0.03115163 0.6805015
-0.2020492 0.02837686 0.6780406
-0.1751822 0.02283356 0.6908075
-0.1740275 0.02244787 0.6890802
-0.1976249 0.0364437 0.6749107
-0.1784937 -0.003724175 0.7287986
-0.1902133 -0.01789507 0.6944317
-0.1987703 -0.01492391 0.6976452
-0.1908329 -0.01565182 0.6961032
-0.1849584 -0.01499569 0.6930614
-0.1868939 -0.01541898 0.693852
-0.1859819 -0.01736804 0.6925244
-0.1834303 -0.01685065 0.6916648
-0.1810143 -0.01324722 0.692688
-0.1810634 -0.01527063 0.6917276
-0.1793727 -0.01330694 0.6920869
-0.2014652 -0.02084265 0.7044684
-0.1939297 -0.04094536 0.6788556
-0.1956892 -0.04029981 0.6802013
-0.1930968 -0.03948171 0.6784649
-0.1946839 -0.03896021 0.679778
-0.1962834 -0.03872168 0.6815005
-0.1963204 -0.03385686 0.6828008
-0.1970681 -0.03609541 0.683944
-0.1955953 -0.03514501 0.6821265
-0.1993403 -0.03202282 0.68605
-0.198433 -0.03706347 0.6843694
-0.1999369 -0.03895514 0.6848663
-0.1984313 -0.03879662 0.682731
-0.2007081 -0.03650554 0.6866899
-0.1998291 -0.03428012 0.6865444
-0.201197 -0.03819206 0.687174
-0.2005183 -0.03842093 0.6862307
-0.1962092 -0.04315452 0.6782066
-0.1999186 -0.04407425 0.6791977
-0.1982724 -0.04243255 0.679491
-0.1995153 -0.02979289 0.6859632
-0.2005507 -0.0311671 0.6873711
-0.194292 -0.03377185 0.6784179
-0.197497 -0.03037957 0.6837828
-0.1956341 -0.03183383 0.6815367
-0.1951047 -0.03747397 0.6807654
-0.1945149 -0.03577272 0.6808101
-0.1970661 -0.04009296 0.6816621
-0.1925486 -0.03737435 0.679266
-0.1968014 -0.04132362 0.680003
-0.1647136 -0.02082697 0.6859208
-0.1625606 -0.02523905 0.686028
-0.1644042 -0.02097399 0.6901646
-0.1679348 -0.0198277 0.6907917
-0.166523 -0.02103654 0.6902691
-0.1611464 -0.03011684 0.6994885
-0.1646157 -0.02593938 0.699573
-0.1635673 -0.02622129 0.6983514
-0.1681255 -0.01585569 0.6916049
-0.1643018 -0.01885497 0.6951966
-0.1604028 -0.01967435 0.6867762
-0.165584 -0.01526292 0.6905841
-0.1729862 -0.01015691 0.6810694
-0.1730798 -0.009770604 0.679299
-0.178618 -0.008852195 0.6819313
-0.1695338 -0.01098085 0.6814645
-0.1711434 -0.01064932 0.6801679
-0.1728948 -0.01045383 0.6824293
-0.1765449 -0.008247105 0.6805122
-0.174969 -0.008592065 0.6789214
-0.1746501 -0.0091997 0.6807641
-0.1762444 -0.00946028 0.682171
-0.1566223 0.01069357 0.6980113
-0.1581571 0.01316839 0.6977309
-0.1596765 0.01554745 0.6973112
-0.1591466 0.01320734 0.6950102
-0.106742 0.01922897 0.6905335
-0.1089586 0.01982702 0.6910418
-0.1187409 0.01952527 0.6945596
-0.1219405 0.01730298 0.6992605
-0.1124338 0.01396039 0.7005485
-0.1110562 0.02039252 0.6905689
-0.1131722 0.01890207 0.6937843
-0.1061893 0.01644966 0.6950369
-0.1153069 0.01894501 0.6948465
-0.1143324 0.0154034 0.6994975
-0.1535537 0.005770877 0.7023661
-0.154103 0.006950418 0.7001764
-0.125729 0.01687255 0.701244
-0.1559192 0.009048316 0.6955476
-0.1632685 0.01152546 0.6869223
-0.1604105 0.009859272 0.6880386
-0.1583685 0.008665104 0.6887877
-0.158867 0.008288876 0.6869051
-0.1585281 0.01083039 0.6929063
-0.1577311 0.008870238 0.6910506
-0.1551666 0.007267177 0.693556
-0.1567835 0.009082486 0.6932356
-0.1207031 0.01809052 0.6976074
-0.1205092 0.01560688 0.7022928
-0.1353869 0.02092669 0.6941962
-0.1229008 0.01859092 0.6975428
-0.1396288 0.01868862 0.7005825
-0.1401512 0.01760308 0.7025059
-0.1198604 0.01693748 0.699311
-0.1361144 0.01973321 0.6968369
-0.1163215 0.01540664 0.700339
-0.1176915 0.0154813 0.7011395
-0.1149692 0.01427991 0.7012513
-0.1181671 0.01783641 0.6977816
-0.1160178 0.01676509 0.6988035
-0.1179191 0.01639275 0.6997645
-0.1070641 0.01510734 0.6981366
-0.1077674 0.01394666 0.7005432
-0.1053565 0.01400405 0.7000988
-0.110494 0.01269959 0.7031604
-0.1079313 0.01298517 0.7023285
-0.1260026 0.02021282 0.6950008
-0.1503413 -0.002546451 0.6957338
-0.1513772 -0.004500518 0.6924433
-0.1525252 -0.002815568 0.6962023
-0.1528567 -0.006137758 0.6934503
-0.1533466 -0.006231868 0.6960908
-0.1561221 -0.01456784 0.6960512
-0.1608045 -0.02164516 0.684824
-0.1609203 -0.0241402 0.6837267
-0.1630683 -0.001951248 0.6705732
-0.1645667 -0.02253146 0.6838886
-0.1783894 -0.005982409 0.6780055
-0.1767168 -0.007329599 0.6785924
-0.1804226 -0.006264484 0.6791914
-0.1778438 -0.005546601 0.6756971
-0.1761233 -0.006839063 0.6751366
-0.1733309 -0.009301384 0.6773244
-0.1727364 -0.0097338 0.6736623
-0.174687 -0.008264277 0.6742194
-0.1720086 -0.01030232 0.6716941
-0.174125 -0.009583792 0.6720192
-0.1762145 -0.006532711 0.6709486
-0.1748763 -0.005668662 0.6694198
-0.1798237 -0.002735221 0.6696768
-0.1799441 -0.004745694 0.6675748
-0.17841 -0.007436429 0.6655183
-0.1799633 -0.009891638 0.6626116
-0.1724293 -0.003627533 0.6677386
-0.1726297 -0.002476671 0.6661669
-0.1707609 -0.003744386 0.667559
-0.1743031 -0.003460983 0.666097
-0.1773534 0.006076552 0.6524936
-0.1765659 0.006106886 0.6540973
-0.1772573 0.004519204 0.6527281
-0.1762402 0.009925684 0.6529995
-0.176764 0.007678709 0.6527351
-0.1808558 0.01101559 0.6520012
-0.1803855 0.01583249 0.6521624
-0.1803046 0.01415912 0.6520995
-0.1764517 0.01895037 0.6598164
-0.1794607 0.01254651 0.6522088
-0.1780805 0.007200427 0.651806
-0.177354 0.0114807 0.6521639
-0.1781761 0.01432599 0.6520909
-0.1790677 0.01064444 0.6520202
-0.1786598 0.0005749776 0.6518008
-0.1721079 0.02028448 0.6868068
-0.170698 0.02384229 0.6850457
-0.1155415 0.0326715 0.667733
-0.1094486 0.03360407 0.6652524
-0.1123966 0.03428321 0.664136
-0.1175998 0.0331863 0.6673584
-0.1168306 0.03241179 0.6694003
-0.1677202 0.02489513 0.6667654
-0.1679336 0.02377937 0.6691005
-0.1685922 0.0258997 0.6685873
-0.1688832 0.0276171 0.6697762
-0.1683772 0.02555534 0.6714039
-0.1746626 0.0301584 0.6554309
-0.1507937 0.04614621 0.6494229
-0.1521845 0.04771039 0.6468468
-0.1794196 0.02716118 0.656374
-0.1796112 0.01954226 0.6529147
-0.1798938 0.0226992 0.654148
-0.1811427 0.02064285 0.653644
-0.17903 0.02493899 0.654784
-0.1780326 0.02698484 0.653854
-0.1783126 0.02887784 0.6553081
-0.1762511 0.02669651 0.653881
-0.1754692 0.02849046 0.6559032
-0.1753379 0.02625568 0.6538924
-0.1620721 0.03861187 0.6670219
-0.1078686 0.04530707 0.6423094
-0.1103342 0.0347912 0.6623331
-0.1078173 0.03879323 0.6551562
-0.1075238 0.03970455 0.652558
-0.1223897 0.047181 0.6406214
-0.1176036 0.04626598 0.640995
-0.1188222 0.04502883 0.6443756
-0.11606 0.04310643 0.6476578
-0.1200284 0.04395996 0.6475185
-0.111772 0.0450866 0.6436559
-0.1092208 0.04450193 0.6443953
-0.1109759 0.04367095 0.6459121
-0.1562019 0.05324352 0.6349494
-0.1504093 0.05250402 0.6356142
-0.1553342 0.0513276 0.6391856
-0.1602209 0.05408951 0.6357508
-0.1315245 0.03984937 0.6571582
-0.1298864 0.04033902 0.6558883
-0.1358463 0.04268614 0.6535769
-0.1298802 0.04272135 0.651062
-0.1177976 0.03912318 0.655111
-0.1217072 0.04114472 0.6531507
-0.1232285 0.04431685 0.6472034
-0.1219062 0.04291143 0.6497484
-0.1321496 0.04226506 0.6531106
-0.1379659 0.04324647 0.6530859
-0.140264 0.04448555 0.6515015
-0.1140207 0.03744354 0.6572968
-0.1153255 0.04774461 0.6384528
-0.1139303 0.04607489 0.6418004
-0.1117764 0.04596823 0.6418234
-0.1283298 0.03975587 0.656743
-0.1240387 0.04225696 0.6509106
-0.1318776 0.04090075 0.6552578
-0.1266308 0.04246094 0.6506339
-0.1262703 0.04037249 0.6542178
-0.1275922 0.04135848 0.6528518
-0.1354708 0.04383568 0.6504897
-0.1344382 0.04260517 0.6523842
-0.1347082 0.04472197 0.6482385
-0.1573964 0.04613637 0.6521281
-0.1588749 0.04595559 0.6524172
-0.1585115 0.0464527 0.6511215
-0.1242614 0.04033978 0.6551875
-0.1247938 0.03930859 0.6578176
-0.1215262 0.03907221 0.6568394
-0.1228956 0.03693541 0.660437
-0.1696997 0.04372066 0.6539241
-0.1534128 0.0428419 0.6557773
-0.151076 0.04201629 0.656753
-0.1593636 0.04376416 0.6562687
-0.1569752 0.04436995 0.6543246
-0.1589055 0.0445197 0.6546478
-0.134379 0.0415007 0.6546841
-0.1533898 0.04656452 0.6508828
-0.155571 0.04639153 0.6516517
-0.1554242 0.04709759 0.6500419
-0.1612161 0.04458183 0.6550846
-0.1511681 0.04530356 0.6520496
-0.1652195 0.04786953 0.6500641
-0.1574733 0.04740314 0.6497636
-0.1554413 0.04787076 0.6481957
-0.1279523 0.04804748 0.6414222
-0.1263318 0.04548682 0.6458612
-0.1599702 0.04567501 0.6535825
-0.1283242 0.04426823 0.648243
-0.1450775 0.0532508 0.6339615
-0.1427099 0.0441041 0.6526037
-0.1362005 0.04327468 0.6520999
-0.1622854 0.04556061 0.6530132
-0.1614504 0.04782477 0.6492304
-0.1597385 0.04740947 0.6503038
-0.1619462 0.04699104 0.651181
-0.1671271 0.0449746 0.6542421
-0.1648164 0.04476074 0.6532388
-0.1561488 0.04546783 0.6530983
-0.1669453 0.04699341 0.6513359
-0.1660406 0.04894529 0.647906
-0.1635331 0.04848677 0.6486176
-0.1114333 0.04789072 0.6375598
-0.1101695 0.04618927 0.6404976
-0.1442665 0.04335187 0.6545313
-0.1415943 0.04276038 0.6546797
-0.1397353 0.0461302 0.6461644
-0.1345715 0.04828565 0.6407171
-0.1380916 0.05086687 0.6357904
-0.1305451 0.0458625 0.6447685
-0.1265651 0.04980401 0.6363325
-0.1695331 0.05055882 0.6456375
-0.1368137 0.04575986 0.646292
-0.1344214 0.04577301 0.6451188
-0.1081204 0.04290301 0.6467772
-0.1155658 0.05010543 0.6333119
-0.162431 0.05356103 0.6384046
-0.1674416 0.05384623 0.6373661
-0.1677045 0.05288424 0.6396528
-0.1693072 0.05360742 0.6387542
-0.1652718 0.05338328 0.6387549
-0.1661261 0.0509037 0.6429842
-0.1659084 0.05201734 0.6408572
-0.1617774 0.05216162 0.6406832
-0.1616828 0.05078513 0.6428106
-0.1590216 0.05150219 0.6414827
-0.1564941 0.0499511 0.6428652
-0.155372 0.048845 0.6455954
-0.1588178 0.04954438 0.6454455
-0.1548114 0.04437816 0.6542432
-0.1523679 0.04413488 0.653852
-0.1644424 0.04651394 0.6517273
-0.1613172 0.04869128 0.6470578
-0.161545 0.04975431 0.6449139
-0.1639041 0.05011951 0.6440144
-0.1660767 0.04997442 0.645322
-0.1680727 0.04986623 0.6464181
-0.1698687 0.04974032 0.6470768
-0.1719582 0.04964489 0.6473279
-0.1684696 0.04894177 0.6485193
-0.1722282 0.05060683 0.6455696
-0.170903 0.05218542 0.6427091
-0.174066 0.05282895 0.6428236
-0.1640926 0.05473662 0.6354232
-0.1710124 0.05361728 0.6390552
-0.1729239 0.05423841 0.6386029
-0.1749171 0.05390233 0.6404936
-0.1726744 0.05154173 0.6441962
-0.172312 0.05333185 0.6407026
-0.1726177 0.04839749 0.6492387
-0.1776071 0.05390081 0.6399011
-0.1756459 0.04653359 0.6502671
-0.1790377 0.03059965 0.6581444
-0.1799155 0.04589523 0.6519469
-0.1784985 0.05225363 0.643726
-0.1796472 0.05332875 0.6419176
-0.1816123 0.05145396 0.645305
-0.1781366 0.05512166 0.637727
-0.1755408 0.0545986 0.638135
-0.177784 0.05158548 0.6451915
-0.1768656 0.05305995 0.6421244
-0.1758185 0.05014435 0.6474226
-0.1778753 0.04777339 0.6498645
-0.177747 0.0305945 0.6564301
-0.1766954 0.0319778 0.6543211
-0.1766193 0.03412095 0.6564615
-0.1775741 0.03020478 0.6543172
-0.1766514 0.03652272 0.6560509
-0.1491347 0.04266456 0.6559569
-0.1496049 0.0438598 0.6538892
-0.1469519 0.04314798 0.6549557
-0.1715718 0.03978435 0.6571546
-0.1741969 0.03395656 0.6554878
-0.1521519 0.03961643 0.6623455
-0.1431842 0.03567789 0.6685105
-0.14421 0.03645358 0.6673458
-0.1515968 0.04102969 0.6597445
-0.1267892 0.03791597 0.6596114
-0.15315 0.04099327 0.6599951
-0.1507869 0.03994872 0.6610298
-0.1452583 0.04132137 0.6583441
-0.1449425 0.04250847 0.6566668
-0.1436953 0.04147624 0.6577605
-0.1328679 0.03755312 0.6624768
-0.1356577 0.03715072 0.6635056
-0.1344843 0.03830898 0.6609044
-0.1453636 0.03745904 0.6658691
-0.1420949 0.0410965 0.6582279
-0.155392 0.0423279 0.6575184
-0.1511343 0.03790988 0.6658301
-0.1368764 0.04210586 0.6550903
-0.1392168 0.04232004 0.6549063
-0.158674 0.04116464 0.6611357
-0.1575862 0.0428839 0.6569433
-0.1594635 0.0426148 0.6579012
-0.1577762 0.04375557 0.655534
-0.1548732 0.04135561 0.6596037
-0.1406388 0.04164748 0.6566168
-0.1360449 0.04087248 0.6569985
-0.140074 0.04084741 0.6588409
-0.1377965 0.04035589 0.6592176
-0.1398416 0.03948748 0.6609386
-0.1463261 0.0382572 0.6640509
-0.1502416 0.03918247 0.6628935
-0.1461912 0.04000182 0.6611819
-0.1472602 0.04097301 0.6594065
-0.1442447 0.03980744 0.6609257
-0.1452515 0.04063193 0.6599037
-0.1452104 0.03899828 0.6624902
-0.1484684 0.03977175 0.6614131
-0.1598995 0.04086313 0.6629888
-0.1395596 0.035213 0.6687893
-0.1423651 0.03789975 0.6636395
-0.1433064 0.03878032 0.6621953
-0.1415676 0.03871239 0.6620067
-0.1363947 0.03598171 0.6665846
-0.1386197 0.03675006 0.6647384
-0.1403479 0.03613875 0.6669659
-0.1330125 0.0393321 0.6589083
-0.1308963 0.03886569 0.6587906
-0.1354165 0.03960484 0.659089
-0.128811 0.03883023 0.6584853
-0.1423486 0.03632744 0.6670578
-0.1073571 0.03688781 0.6583816
-0.1105952 0.03633112 0.659359
-0.1156324 0.03530623 0.6632288
-0.1134574 0.0358217 0.6609073
-0.1079945 0.03500542 0.6611513
-0.1169575 0.03388266 0.6654243
-0.1193017 0.03532294 0.6630586
-0.1299506 0.03774815 0.6608957
-0.1308423 0.03657202 0.6639568
-0.1402168 0.03788392 0.6629449
-0.141534 0.03545521 0.6687768
-0.1433652 0.0370809 0.6654657
-0.1446359 0.03564875 0.6692464
-0.1076888 0.02948977 0.6724281
-0.1060418 0.03013587 0.6710234
-0.1191403 0.03281723 0.6683982
-0.1224024 0.0319928 0.671117
-0.146493 0.03513598 0.6698723
-0.1283451 0.03278179 0.6709086
-0.1288341 0.02992687 0.6760736
-0.1276349 0.03116853 0.6745199
-0.1254432 0.03064864 0.6740912
-0.1267151 0.0317253 0.6722771
-0.1246043 0.0315999 0.6720691
-0.1269478 0.0294849 0.6756787
-0.1206231 0.02535137 0.6835225
-0.1202381 0.02616171 0.6817802
-0.1189023 0.02528623 0.6829231
-0.1141837 0.02604405 0.6805015
-0.1120743 0.02534774 0.680887
-0.115632 0.02524666 0.6816429
-0.1172137 0.02511205 0.6824315
-0.1137043 0.02464372 0.6823723
-0.1195072 0.02692411 0.6801513
-0.1185433 0.02756991 0.6781056
-0.1176453 0.02438725 0.6838953
-0.1212019 0.02697917 0.6804591
