# .PCD v0.7 - Point Cloud Data file format
VERSION 0.7
FIELDS x y z
SIZE 4 4 4
TYPE F F F
COUNT 1 1 1
WIDTH 1509
HEIGHT 1
VIEWPOINT 0 0 0 1 0 0 0
POINTS 1509
DATA ascii
0.04745265 0.04269243 0.6688309
0.04836472 0.04337843 0.6682777
0.04877871 0.0482366 0.658222
0.04774199 0.04868914 0.6578882
0.03760643 0.04802426 0.6588774
0.03740424 0.04816354 0.6586014
0.03771338 0.04810181 0.658586
0.05322675 0.0453578 0.6658956
0.05289342 0.04502445 0.6660567
0.04360394 0.04907469 0.6578277
0.0437288 0.04855441 0.658581
0.04412861 0.04890998 0.6578949
0.04661459 0.04892026 0.6578059
0.03038869 0.04823978 0.658095
0.0298326 0.04825988 0.6577622
0.04821476 0.04909625 0.6572243
0.03601043 0.04819094 0.6589798
0.04877357 0.04619874 0.6634037
0.04049873 0.04521845 0.664605
0.0512456 0.04599275 0.6644734
0.05082301 0.04589984 0.6641976
0.05127822 0.04605601 0.6641364
0.05101821 0.04596469 0.6637431
0.03909916 0.04782779 0.6588807
0.03621677 0.04834899 0.6586196
0.03205317 0.04829166 0.6590149
0.03240627 0.04840225 0.6588191
0.03192399 0.04834587 0.658578
0.03174004 0.04819807 0.6589795
0.03777436 0.04827469 0.6577268
0.03360976 0.04807111 0.659283
0.03751805 0.04820295 0.658233
0.03676778 0.0480321 0.6593738
0.03311085 0.04801553 0.6596404
0.02941534 0.04784118 0.6600594
0.03254877 0.04804007 0.659624
0.03232925 0.04831222 0.6592332
0.03133146 0.04817497 0.6586655
0.03152614 0.04840416 0.6581296
0.02814939 0.04758471 0.6588849
0.02827817 0.04779313 0.65814
0.02866037 0.04780734 0.6586169
0.03049451 0.04815446 0.6586548
0.03300525 0.0484105 0.658523
0.03330114 0.04832013 0.658909
0.03174084 0.04865418 0.6575404
0.03304428 0.04851231 0.6580195
0.0327702 0.0484959 0.6581404
0.03088833 0.04809828 0.6588309
0.03081298 0.0482039 0.6583664
0.03288229 0.04830185 0.659178
0.01891407 0.04451277 0.6646122
0.01840224 0.04452069 0.664676
0.01876371 0.04465024 0.6642414
0.01583075 0.04738428 0.658556
0.01569511 0.04706541 0.6593211
0.01837703 0.04667687 0.660617
0.02669532 0.04843746 0.65724
0.01735077 0.04810878 0.6583189
0.01671014 0.04792316 0.6584677
0.02649275 0.04817863 0.6576682
0.02180737 0.04692038 0.6591416
0.0258027 0.04821083 0.6576134
0.01773313 0.04812425 0.6581732
0.01587695 0.0467453 0.6598225
0.03116027 0.04711703 0.660533
0.01410497 0.04322347 0.6647464
0.01815063 0.04745641 0.6595607
0.0187241 0.04708423 0.6598322
0.01661151 0.01402525 0.7222685
0.01708862 0.01434211 0.7212176
0.01813036 0.01418593 0.7218044
0.02591406 0.04789386 0.658084
0.01520177 0.04685345 0.6588723
0.01658788 0.04743567 0.6591523
0.0107604 0.04628614 0.6574762
0.01934548 0.04446466 0.6643847
0.01917738 0.04440993 0.6647924
0.01944704 0.04425208 0.6648427
0.009808813 0.04400504 0.6649696
0.0150598 0.04378127 0.6634208
0.009978412 0.04342305 0.6658255
0.01040601 0.04365399 0.665872
0.01762099 0.037336 0.677143
0.01717093 0.03742776 0.6778518
0.01515278 0.04095069 0.6700793
0.0147014 0.04094728 0.6698551
0.02632384 0.04380396 0.6646715
0.02644993 0.04355765 0.6649704
0.02680549 0.04391084 0.6646852
0.02574679 0.04260212 0.6674529
0.02516556 0.04214067 0.6679625
0.02745196 0.04337496 0.6653695
0.02255061 0.04402278 0.6632946
0.02541807 0.04407335 0.6636978
0.02504949 0.04400575 0.6635107
0.02507501 0.04365185 0.6638193
0.01820345 0.04231291 0.6684079
0.02687324 0.0428764 0.6670198
0.02651407 0.04306193 0.6661036
0.02716125 0.04293234 0.6664323
0.026787 0.04332886 0.6654269
0.02644591 0.04271743 0.6676643
0.02537277 0.04441721 0.6632397
0.01047589 0.04345369 0.6662989
0.01023334 0.04340342 0.6660606
0.02429747 0.04332108 0.6653711
0.02414659 0.04321112 0.6658654
0.02374239 0.04331842 0.6656165
0.02207645 0.04403756 0.663873
0.02237795 0.04370699 0.6646009
0.02349454 0.04345098 0.6651528
0.01855298 0.04481901 0.6637647
0.01787411 0.04352221 0.6660318
0.01815302 0.04351414 0.6661355
0.02195336 0.0437344 0.6648283
0.02733211 0.04313578 0.6658748
0.02810748 0.04329914 0.6655136
0.02611811 0.04290602 0.6668571
0.02361791 0.04316333 0.6660784
0.01307134 0.04319713 0.6664825
0.02032099 0.04312054 0.6666273
0.02067316 0.04283053 0.6670784
0.02288055 0.04322619 0.6658642
0.009586548 0.0436393 0.6654024
0.01427225 0.04309998 0.6665077
0.0118244 0.04392274 0.6647183
0.01215548 0.04400906 0.6643
0.01158125 0.04434839 0.6640511
0.0143432 0.04287889 0.6670815
0.008036112 0.04391639 0.6654108
0.01890627 0.04492594 0.6635447
0.01920523 0.04478176 0.6637881
0.01619711 0.04385567 0.6656297
0.02313695 0.04360247 0.6645226
0.02276171 0.04379388 0.6638876
0.01827259 0.04208622 0.6687769
0.01869239 0.04167868 0.6691345
0.03187906 0.04360503 0.6671219
0.02927515 0.04325541 0.6661381
0.02949447 0.04362359 0.6659145
0.03016713 0.04374612 0.6660368
0.02764461 0.04482986 0.6635538
0.0279481 0.04455578 0.663847
0.01700855 0.04405522 0.6653864
0.02041773 0.04390754 0.6645905
0.02279887 0.04354452 0.665081
0.01707011 0.04441178 0.6647479
0.02062387 0.04404636 0.664253
0.02462498 0.0437039 0.663523
0.02739428 0.04447744 0.6639509
0.03174228 0.04462708 0.6645877
0.00939183 0.04435006 0.6645378
0.0101333 0.04507978 0.6635774
0.01758222 0.04424474 0.6651129
0.01799382 0.04436444 0.6649481
0.01772068 0.04455355 0.6644983
0.01584476 0.04399753 0.6642277
0.0156475 0.0439723 0.663617
0.008488008 0.04463172 0.6640859
0.01824715 0.0446778 0.6642103
0.01754122 0.04465836 0.6640924
0.02712446 0.04272084 0.6679181
0.01969119 0.04493633 0.6633949
0.01921783 0.04422284 0.6651086
0.02690393 0.04505163 0.6632628
0.02715431 0.0448511 0.6635347
0.02729274 0.04506809 0.6633063
0.02664469 0.04475153 0.6635768
0.02620288 0.04465298 0.6635817
0.02049917 0.04426889 0.663974
0.01802196 0.04413038 0.6652827
0.02838564 0.04436657 0.6639574
0.03244434 0.04528717 0.6635239
0.03712892 0.04537074 0.6637456
0.03113827 0.04506163 0.6637092
0.03629712 0.04574244 0.6635603
0.03354578 0.04512905 0.6645679
0.03428273 0.04530512 0.6645154
0.03489547 0.04522465 0.6646377
0.03453491 0.04549474 0.6642548
0.03329577 0.044561 0.6663095
0.03557445 0.04516592 0.6647491
0.03569908 0.04486787 0.6652103
0.04073957 0.04550246 0.6642602
0.04156918 0.04534671 0.6651105
0.04227097 0.04584436 0.6638004
0.04269623 0.04585141 0.6637567
0.04203606 0.04536752 0.6649488
0.04250386 0.04508948 0.6652113
0.0419449 0.04512252 0.6654218
0.04155453 0.04585898 0.6637848
0.0297672 0.04410226 0.6651298
0.02922633 0.04390948 0.6649886
0.02949492 0.04413357 0.6645648
0.04090257 0.04493159 0.665837
0.04053549 0.04491522 0.665592
0.04019998 0.04454553 0.6658043
0.04209806 0.04558178 0.6645529
0.0393346 0.04409511 0.6647441
0.04470895 0.04401994 0.6664565
0.04456966 0.04373681 0.666837
0.03427736 0.04496308 0.6650025
0.03628941 0.04470091 0.6653543
0.03603834 0.04504754 0.6649034
0.04186021 0.04575858 0.6641015
0.04841124 0.04485605 0.6658494
0.04880625 0.04472405 0.6659904
0.03090631 0.04407177 0.665832
0.04917226 0.04469525 0.6663088
0.04561853 0.0451055 0.6651855
0.0457398 0.04539201 0.6646704
0.03883374 0.04330208 0.6675857
0.03862072 0.04284766 0.6681499
0.03912479 0.04313645 0.668195
0.03658356 0.04608602 0.6627591
0.04254329 0.04571008 0.6642255
0.04488486 0.04641595 0.6630532
0.04403183 0.04614943 0.6636564
0.04623258 0.04675325 0.6632186
0.04389201 0.04590561 0.6641191
0.05092955 0.04568533 0.6646976
0.04665155 0.04651679 0.6635783
0.04634241 0.04594075 0.6640472
0.05231192 0.04430201 0.667071
0.03221857 0.04350365 0.6675657
0.0477291 0.04619042 0.6640947
0.04732424 0.04669028 0.6635646
0.04365962 0.04600716 0.6638469
0.05168895 0.04604385 0.663606
0.04825892 0.0458814 0.6644579
0.04778957 0.04561067 0.6647743
0.04857851 0.0452459 0.6651052
0.04792231 0.04530366 0.6652169
0.04707318 0.04615324 0.663977
0.03757875 0.04256425 0.669561
0.0471925 0.04499207 0.6658084
0.04689886 0.04517589 0.6654168
0.04744938 0.04526054 0.6653109
0.05192778 0.04601594 0.6643352
0.05681776 0.04652482 0.6644212
0.05733414 0.04630081 0.6644372
0.05736727 0.04644259 0.6640181
0.05311561 0.04461564 0.6665219
0.05259936 0.04469582 0.6662193
0.05150758 0.04569331 0.6648948
0.04602025 0.04557695 0.6643396
0.04177647 0.04271284 0.6683873
0.04090961 0.04303301 0.6681409
0.04132716 0.043205 0.6677268
0.04087918 0.04277411 0.6686063
0.0632518 0.0462454 0.6644953
0.06304678 0.04665356 0.6641556
0.04362822 0.04544767 0.6646512
0.04660546 0.0452475 0.6651271
0.04707561 0.04544717 0.6648449
0.0405524 0.04471201 0.6660152
0.05057763 0.04535811 0.6648719
0.04299487 0.04551947 0.6645378
0.04306007 0.04519083 0.6649724
0.0425363 0.0454038 0.664758
0.04972947 0.04460134 0.6668769
0.04931444 0.04489334 0.6656204
0.04961688 0.0451888 0.6647843
0.07140314 0.0457999 0.6661423
0.07100206 0.0461543 0.6654057
0.07167637 0.04589369 0.665044
0.04654081 0.04511893 0.6654766
0.04618486 0.04506342 0.6653855
0.04558838 0.0447505 0.6656985
0.04730923 0.04585054 0.6643955
0.04617937 0.04524488 0.664923
0.04346603 0.04454208 0.6657534
0.04298752 0.04480441 0.6654831
0.04362368 0.04494893 0.6652257
0.04787123 0.04501766 0.6656684
0.04446382 0.04463864 0.6656319
0.04421803 0.04445199 0.6658936
0.04400508 0.04467286 0.6655682
0.05274729 0.04598754 0.6644691
0.05019183 0.04543977 0.6640335
0.04240333 0.04477769 0.6656933
0.04288973 0.04438037 0.6660416
0.0447749 0.04442606 0.6659719
0.04415893 0.04414855 0.666302
0.03898218 0.0442665 0.6644138
0.03595589 0.04308298 0.6676512
0.04406973 0.04490381 0.6652625
0.04998217 0.0447247 0.6660154
0.05066078 0.04457648 0.6664744
0.04498714 0.04483861 0.6654459
0.03708641 0.04448986 0.6652182
0.03786047 0.04402348 0.6652377
0.04183472 0.04415815 0.666577
0.04221888 0.04410657 0.6665558
0.04223344 0.04375781 0.6668841
0.04640229 0.04427695 0.6665135
0.04125301 0.04179564 0.6704069
0.04171924 0.04188479 0.6702559
0.04123906 0.04216174 0.6698812
0.07527 0.03811058 0.680043
0.04433966 0.03290981 0.6446744
0.04386155 0.03320676 0.6447672
0.03837055 0.04410931 0.6647227
0.03434372 0.04459273 0.6656713
0.05092265 0.04183268 0.6710405
0.05112094 0.04220166 0.6705011
0.03248042 0.04479426 0.6647816
0.02872304 0.04368994 0.6650584
0.0297457 0.04393614 0.6656598
0.03028472 0.04409714 0.6655415
0.03066662 0.04143728 0.6690115
0.03468471 0.04449087 0.6656717
0.03043937 0.04485029 0.6638296
0.02923092 0.04374754 0.6654589
0.0307015 0.04422228 0.6654152
0.0366656 0.04442464 0.6656734
0.03623766 0.04430016 0.665957
0.03688088 0.04408411 0.6660436
0.04402618 0.04373388 0.6668798
0.04431843 0.04392055 0.6666244
0.03492402 0.04393269 0.6666202
0.03411822 0.04418783 0.6666643
0.0160435 0.0432261 0.6672364
0.03857084 0.04346763 0.6668282
0.03053804 0.04086646 0.669817
0.04750963 0.04477047 0.6662039
0.03633361 0.0439041 0.666436
0.03646822 0.04361644 0.6667975
0.03591704 0.04364022 0.6667974
0.04040091 0.04432123 0.6664364
0.03996633 0.04405732 0.6667617
0.03990048 0.04416795 0.6664885
0.03813058 0.0428413 0.6679114
0.03747666 0.04282483 0.668061
0.03779306 0.04310777 0.6674615
0.04281066 0.04374962 0.6667584
0.04257689 0.04406103 0.6664878
0.05306069 0.04370988 0.6686315
0.05304686 0.04325453 0.6695173
0.05226165 0.04370373 0.6689939
0.03685597 0.04346723 0.6669864
0.04129531 0.04475103 0.6660782
0.04086202 0.04463365 0.6662057
0.04383648 0.04438703 0.6659684
0.05114254 0.04445186 0.6672145
0.05068575 0.0444335 0.6679152
0.05156182 0.0443923 0.6678861
0.05205173 0.04432555 0.6675449
0.05163717 0.04442186 0.667446
0.05171531 0.04436477 0.6670656
0.04879642 0.04487953 0.6656699
0.04694293 0.04466796 0.6662446
0.04715023 0.0443665 0.6666852
0.04304273 0.04398224 0.6664829
0.04333229 0.0436289 0.666902
0.04351374 0.04411168 0.6663259
0.04120532 0.0443355 0.6665015
0.04167898 0.04452542 0.6662781
0.04183175 0.04480962 0.6658946
0.0443879 0.04272079 0.6690499
0.04451068 0.04299865 0.6686332
0.04088826 0.04402106 0.666825
0.04039612 0.04392132 0.6670421
0.05387013 0.04269069 0.6700948
0.0417462 0.04343943 0.6672947
0.04103909 0.04366702 0.6672429
0.03743198 0.04344552 0.6669018
0.03803646 0.04337119 0.6669468
0.03815888 0.04351782 0.6664744
0.0460563 0.04307564 0.6682308
0.04488917 0.04263067 0.6692979
0.04148484 0.04389732 0.6669047
0.03663136 0.04274197 0.6686637
0.04954914 0.04320536 0.6688606
0.03688394 0.04371888 0.6666075
0.05339411 0.04397265 0.6678295
0.05264505 0.04423817 0.6675314
0.03955459 0.04263234 0.6690515
0.03958875 0.04297306 0.6686024
0.0402979 0.0426562 0.6690621
0.04350225 0.04295237 0.6678749
0.04376067 0.04331101 0.6674384
0.04443796 0.0424833 0.6695101
0.04220856 0.0444182 0.6662337
0.05427312 0.04232883 0.6706848
0.04955613 0.04432493 0.6680211
0.0492441 0.04387815 0.6682727
0.04993148 0.04394878 0.6685092
0.04995187 0.04455355 0.667657
0.04933188 0.04454556 0.6674684
0.04643688 0.04281042 0.6687562
0.04693289 0.04325268 0.6679947
0.05414978 0.04394691 0.6676133
0.0561859 0.04241063 0.6693625
0.05702692 0.04267191 0.669293
0.03908581 0.04274333 0.6686755
0.03644219 0.04261792 0.6694772
0.0370828 0.04265694 0.6693758
0.04319275 0.0426761 0.6682287
0.03546749 0.04116749 0.6730917
0.03553444 0.04163709 0.6724029
0.03479434 0.04148689 0.672934
0.0427264 0.04252727 0.6686615
0.03929067 0.04349705 0.6677157
0.03905148 0.04240317 0.6692676
0.04566305 0.04209461 0.6705793
0.04506161 0.04197427 0.6706013
0.04529972 0.04229785 0.670122
0.04232424 0.04332104 0.6673097
0.05584872 0.03830789 0.6780214
0.03206921 0.04144243 0.6705681
0.03252298 0.04157094 0.6708338
0.03218972 0.04128069 0.6711474
0.04310053 0.03996257 0.6740733
0.04264928 0.04008443 0.6736055
0.04905983 0.04131818 0.6721541
0.04959887 0.04131807 0.6719408
0.04912116 0.04137055 0.6716154
0.03837142 0.04312322 0.6674875
0.03604621 0.04287194 0.6681354
0.0439278 0.04306377 0.6680273
0.04438108 0.04318338 0.6681341
0.06956927 0.04284018 0.6710411
0.03848536 0.04234232 0.6692333
0.03853185 0.04229117 0.6698207
0.04310733 0.04196034 0.6703267
0.04253585 0.04218248 0.6698654
0.0386169 0.04247051 0.6687704
0.03976618 0.0422176 0.6700821
0.03982601 0.04236852 0.6695672
0.03924027 0.04223062 0.6699191
0.03914917 0.04364995 0.6670185
0.03595091 0.04243098 0.6703491
0.04480923 0.04230435 0.6699139
0.04534868 0.04253712 0.6695884
0.04415665 0.04333603 0.6676669
0.04014447 0.0431318 0.6683159
0.03219492 0.04173118 0.6700716
0.032362 0.04169633 0.6704519
0.03275415 0.04183958 0.6704257
0.04369258 0.04085885 0.6722326
0.04427054 0.0409947 0.67199
0.04438383 0.04069821 0.6725034
0.03951381 0.04332922 0.6681748
0.03976808 0.04350264 0.6678612
0.03535631 0.04365895 0.6668261
0.03964468 0.04093141 0.6729136
0.04009605 0.04103788 0.6726977
0.03974344 0.04126427 0.6725692
0.03884103 0.04208938 0.6712764
0.03829509 0.04209708 0.671189
0.0384188 0.04202486 0.671505
0.04719133 0.04160132 0.6711785
0.04678083 0.04196596 0.6707307
0.04410619 0.04345666 0.6673317
0.04189534 0.042173 0.6698242
0.04224187 0.04240237 0.6692193
0.05105241 0.04375608 0.6688578
0.05135324 0.04343906 0.6691707
0.04362218 0.04209765 0.6700923
0.04490568 0.04081345 0.67213
0.04554527 0.04024433 0.6726837
0.04568259 0.04095139 0.6718661
0.05168424 0.04220509 0.6707875
0.04591734 0.04161214 0.6712323
0.04543323 0.04145771 0.6713601
0.04988919 0.04164881 0.6708899
0.05189921 0.04171482 0.6715712
0.05274782 0.04172375 0.6717276
0.04592399 0.04259856 0.669382
0.05251407 0.04310615 0.6700112
0.05289339 0.04284386 0.6703419
0.05118426 0.04421939 0.6683997
0.05056201 0.04410424 0.6685073
0.05135959 0.04441549 0.6666368
0.05174336 0.04344987 0.6692863
0.04668019 0.04241484 0.6694992
0.05820111 0.04570879 0.6649714
0.05912682 0.04578238 0.6647628
0.05895108 0.04533076 0.6655124
0.04188824 0.03869918 0.6770422
0.04255162 0.03866078 0.6767514
0.03613897 0.04265441 0.6690297
0.03579632 0.04259999 0.6693404
0.04109919 0.03885168 0.6772954
0.04090612 0.03848911 0.6780404
0.04065494 0.03881095 0.6777008
0.05308776 0.03956806 0.6766959
0.05187247 0.04035242 0.675875
0.05826794 0.04126094 0.6727793
0.05830081 0.04151523 0.6721607
0.05790582 0.04110061 0.6721649
0.07010075 0.04146888 0.6736978
0.07070534 0.04137405 0.6736377
0.07055628 0.04146435 0.6731383
0.06645849 0.04209854 0.6731544
0.01286683 0.04311982 0.6668543
0.04807484 0.03980719 0.6752023
0.04795678 0.04009485 0.674867
0.04602433 0.0398949 0.6753617
0.04631626 0.03994304 0.6752549
0.04153913 0.04098968 0.6720024
0.04121073 0.04124203 0.6716942
0.05011993 0.04437337 0.6681938
0.04637787 0.0397387 0.6755826
0.04674703 0.03991421 0.675279
0.05708465 0.04119401 0.6709657
0.05750175 0.04123522 0.6710765
0.0573063 0.04086985 0.671594
0.07071634 0.04599295 0.6665242
0.07090154 0.04583214 0.6670496
0.05369733 0.04354868 0.6683825
0.05362329 0.04331678 0.6688824
0.04768462 0.04403649 0.6672916
0.04131598 0.04146143 0.6709022
0.04191161 0.04143645 0.6707757
0.04551367 0.04421699 0.6663011
0.05492961 0.04397087 0.6675044
0.05531334 0.04471719 0.6668226
0.05592782 0.04463075 0.6667703
0.04642072 0.04479765 0.6658939
0.06699115 0.04632781 0.6656705
0.05233449 0.04413034 0.6681885
0.05170952 0.04422428 0.6683854
0.05041555 0.0445749 0.6672176
0.04044069 0.04348918 0.6676464
0.03973527 0.04378086 0.6672393
0.04497796 0.043566 0.6670777
0.04451724 0.04349533 0.6673478
0.04210629 0.04303708 0.6677102
0.03957925 0.04396824 0.6666127
0.03979164 0.04417352 0.6661087
0.04442333 0.04338602 0.6677441
0.02656882 0.04186298 0.6710069
0.01287603 0.03962075 0.6728184
0.02869838 0.04232489 0.6685315
0.03155931 0.04374717 0.6666828
0.03060116 0.04220349 0.6678264
0.03045868 0.0419245 0.668312
0.0311656 0.04209551 0.6682884
0.03360254 0.0439686 0.6675547
0.03273545 0.04408026 0.667242
0.03332667 0.04421539 0.6670995
0.03581353 0.04272959 0.6686823
0.01254655 0.04329661 0.6664829
0.03068505 0.04332896 0.6666756
0.0303199 0.04340652 0.6664442
0.0321262 0.04258106 0.6684067
0.03258196 0.04260009 0.6687216
0.03189128 0.04224807 0.6687036
0.01519509 0.04122991 0.6698062
0.01545031 0.04119749 0.6701139
0.03224364 0.0439167 0.6671037
0.03558091 0.04403011 0.6663351
0.03198038 0.04404382 0.666707
0.009414961 0.02602711 0.6986978
0.03303353 0.04437663 0.666887
0.01594829 0.04233762 0.6691321
0.01561572 0.04246796 0.6687046
0.01355074 0.04260544 0.6676046
0.02730912 0.04282466 0.6668053
0.04046679 0.04214385 0.6701047
0.009511922 0.04077516 0.6709545
0.06243698 0.04087988 0.67413
0.06280978 0.04129394 0.6736284
0.06364429 0.04152801 0.6728727
0.06175402 0.04240354 0.6718335
0.06287217 0.04234939 0.6720309
0.06047826 0.04271001 0.6712624
0.009102083 0.02347801 0.7033738
0.009608007 0.02362476 0.703271
0.009383895 0.02348997 0.7035679
0.0185897 0.02395572 0.7014115
0.01795429 0.02418934 0.7012523
0.0180707 0.02381168 0.701915
0.01060185 0.02373596 0.7024975
0.0106534 0.02378492 0.7030315
0.009070874 0.02373959 0.702756
0.05119089 0.02223721 0.7067649
0.05147342 0.02214046 0.7072581
0.05097354 0.02205189 0.7074711
0.03608707 0.02001575 0.7126945
0.03460513 0.02009901 0.7117578
0.03480234 0.01996305 0.7123656
0.03532735 0.02018735 0.7120799
0.02452025 0.01817176 0.7144263
0.02463871 0.01829426 0.7137746
0.02490259 0.01818846 0.7140545
0.05881782 0.04357725 0.6690528
0.05815211 0.04374126 0.6687086
0.05799747 0.04318881 0.6692286
0.05587797 0.04222357 0.6696926
0.05583028 0.04201436 0.6702663
0.06929024 0.04467009 0.6683395
0.07226379 0.04533093 0.6663662
0.07283983 0.04523081 0.6665468
0.07245118 0.04519454 0.6668819
0.03867588 0.02892198 0.6963003
0.03908869 0.028831 0.6966305
0.0391098 0.02919548 0.6963353
0.0526628 0.02930444 0.6943738
0.05217359 0.0297584 0.6941273
0.04457897 0.0288075 0.6960573
0.04468808 0.02837187 0.6969545
0.0451542 0.02849203 0.6963698
0.07001356 0.04316908 0.670705
0.07033059 0.04316347 0.6705878
0.01627834 0.01307728 0.7250898
0.01701698 0.01329024 0.7245798
0.02467434 0.04138884 0.6687791
0.02815139 0.04263252 0.667576
0.01875517 0.04222274 0.6683807
0.02485016 0.04166967 0.6684299
0.01407358 0.04255865 0.6675186
0.01188985 0.04219174 0.6680793
0.008903913 0.04237657 0.6670692
0.008840516 0.04138927 0.6687288
0.008531057 0.04161824 0.6685533
0.02547316 0.04189378 0.6695481
0.01357323 0.04040354 0.6705337
0.0235033 0.0411141 0.6688977
0.02268068 0.04096784 0.6695229
0.01954565 0.04015185 0.6719821
0.02011491 0.04020606 0.6719409
0.02002242 0.04015978 0.6713663
0.03077761 0.04170061 0.6686587
0.03030809 0.04161849 0.668793
0.02745271 0.04277559 0.6672726
0.02921934 0.04224296 0.6684887
0.02985212 0.04196353 0.6685229
0.02666356 0.04215343 0.6694163
0.02903529 0.04214343 0.6688138
0.03222145 0.04214719 0.669117
0.03869148 0.04187634 0.671787
0.02144972 0.04042644 0.6705712
0.02231501 0.04052686 0.6704758
0.02155419 0.04076175 0.6699656
0.008530253 0.04117762 0.6692772
0.02278162 0.04160788 0.6686703
0.02143513 0.04141294 0.6691406
0.01040579 0.04019392 0.6718449
0.009924348 0.04027617 0.6718773
0.0100959 0.04052126 0.6712309
0.01064874 0.03994545 0.6722246
0.01028717 0.04156724 0.668179
0.01500451 0.0414779 0.6693547
0.01633618 0.04144516 0.6702446
0.02636637 0.04067343 0.6729867
0.025616 0.04066591 0.6731722
0.02598106 0.04043995 0.673615
0.02949175 0.0419208 0.6689465
0.02986828 0.04164267 0.668997
0.02395581 0.04100396 0.6687748
0.02303012 0.04050179 0.6707615
0.01553036 0.04156007 0.6697245
0.01585324 0.04142771 0.6701896
0.0237934 0.04041862 0.6735321
0.01604523 0.03863033 0.6735115
0.01538975 0.03851572 0.673693
0.01815956 0.03865154 0.6745002
0.009841699 0.04074211 0.6706305
0.02036239 0.04007008 0.672958
0.01956938 0.03999074 0.672752
0.02318543 0.040432 0.6715068
0.03031189 0.04014021 0.6716518
0.02999498 0.04032807 0.6710101
0.03071157 0.0404611 0.6710497
0.02941155 0.04213018 0.6685929
0.04123661 0.03952736 0.6747539
0.02160316 0.04019317 0.6721307
0.02234352 0.04006313 0.6727754
0.02243958 0.04022887 0.6718544
0.02529858 0.04036291 0.6738292
0.02603842 0.04013271 0.6740502
0.02577849 0.03983993 0.6744762
0.03410475 0.04150204 0.6726571
0.03402711 0.04084538 0.6732348
0.03363901 0.04116187 0.6726429
0.02091602 0.04048299 0.6702327
0.02082876 0.04026077 0.6706578
0.02912996 0.03915277 0.6736799
0.02864059 0.03906067 0.6742285
0.02252226 0.04036453 0.6711361
0.02616545 0.04126414 0.6720055
0.02682998 0.04104606 0.6723729
0.0396837 0.03957514 0.6750296
0.0279339 0.03994549 0.6733876
0.04459073 0.04055065 0.6736829
0.02729031 0.04083548 0.672485
0.01859713 0.0406363 0.6703396
0.02104798 0.04008529 0.6731883
0.02101988 0.04020353 0.672586
0.02936357 0.0388147 0.6741872
0.02890583 0.03878718 0.674661
0.02411343 0.03786842 0.6770192
0.02453141 0.03819359 0.6772064
0.02390977 0.03803387 0.6765443
0.0440164 0.04020157 0.6747146
0.04368333 0.04031199 0.6740928
0.04336328 0.03988543 0.6745373
0.02503761 0.0398821 0.6744533
0.02599178 0.03754116 0.6784773
0.02633691 0.03730617 0.678842
0.02652469 0.03755253 0.6785363
0.02228512 0.03975879 0.6737428
0.02276653 0.04000632 0.6732634
0.02323775 0.03998813 0.6737727
0.02303745 0.03947718 0.6744675
0.02544433 0.04095674 0.6723555
0.01276471 0.04118828 0.6695058
0.03402974 0.04226264 0.6706028
0.03351988 0.04207077 0.6707944
0.03376557 0.04217594 0.6704271
0.02612508 0.04183459 0.6709263
0.02049556 0.04127333 0.6692775
0.008572277 0.04246005 0.6670357
0.02127401 0.04194367 0.6685646
0.02210734 0.03715934 0.647862
0.02241808 0.03711852 0.6480652
0.01740732 0.04081631 0.6706566
0.01734157 0.04258439 0.668234
0.02759259 0.04273701 0.6677976
0.01794438 0.04064402 0.670616
0.01254456 0.04016818 0.6710718
0.01433501 0.04126903 0.6693825
0.01144004 0.03939456 0.6734133
0.01096059 0.0395741 0.6729587
0.0218398 0.04029166 0.6712065
0.01417294 0.04097288 0.669771
0.01086122 0.04183527 0.667996
0.01219273 0.04040856 0.6705614
0.01280975 0.03941365 0.6732578
0.0124815 0.03962653 0.6728969
0.01140514 0.04185567 0.668243
0.01149822 0.04157627 0.668662
0.01443791 0.04180584 0.6683081
0.02057863 0.04080373 0.6697464
0.01389447 0.04183561 0.6684955
0.01184499 0.04185675 0.6685046
0.01413594 0.04196914 0.6681675
0.02200864 0.04203084 0.66842
0.02895387 0.04251136 0.6674122
0.0160796 0.03640658 0.680093
0.01683968 0.03621962 0.6800088
0.01686256 0.03564237 0.6806672
0.009098386 0.04171104 0.6681801
0.02988746 0.03998563 0.6719007
0.008699741 0.04221449 0.6674239
0.01449012 0.04158926 0.6688269
0.02433701 0.04145638 0.6684262
0.02036812 0.04033517 0.6702741
0.0206984 0.04017764 0.6711522
0.02024497 0.04013254 0.6707476
0.0148127 0.0417228 0.6684261
0.02390899 0.04127095 0.6685461
0.02118486 0.04025995 0.6710169
0.02302544 0.03904804 0.6749664
0.02229228 0.03908459 0.6746787
0.02349504 0.04150717 0.6684216
0.009208784 0.041021 0.6693603
0.01557787 0.03924407 0.6720135
0.01572161 0.0396983 0.6715211
0.01529721 0.03958616 0.6715332
0.008690167 0.04172957 0.6683434
0.008566258 0.04033114 0.6716388
0.01250573 0.03838845 0.6752746
0.01179536 0.0384675 0.6752153
0.01192398 0.03801333 0.6756987
0.0117598 0.0403805 0.6705088
0.01063328 0.04044152 0.6709675
0.01144759 0.04043486 0.6702948
0.01094966 0.04044499 0.6704692
0.01259549 0.03982124 0.6723874
0.01694492 0.04046765 0.6712186
0.01743505 0.04053434 0.6710089
0.011426 0.04034671 0.6706841
0.0195483 0.04027492 0.6703676
0.01970457 0.04012423 0.6707906
0.01993938 0.04019082 0.6704101
0.01905239 0.04003807 0.6724061
0.01909026 0.04030539 0.6706817
0.02885061 0.04055659 0.6716927
0.01222654 0.03887332 0.6743892
0.01182351 0.03908183 0.6739675
0.01163483 0.03890146 0.6744862
0.02978251 0.04062359 0.6704059
0.03043817 0.03930317 0.6731721
0.03117654 0.03982793 0.6729904
0.03034418 0.03978698 0.6723998
0.02967038 0.03985675 0.6722444
0.01253212 0.03998521 0.6717306
0.01113103 0.04061942 0.6694163
0.02115961 0.04023614 0.6715193
0.02659419 0.03971785 0.6744397
0.02647335 0.04018147 0.6737881
0.03031055 0.04057454 0.670367
0.01419797 0.03930509 0.672418
0.01175503 0.03954771 0.6730896
0.03773146 0.04140876 0.67226
0.03741757 0.04161675 0.6719137
0.03726638 0.04116588 0.6724898
0.04909695 0.03720835 0.6799471
0.04953262 0.03696077 0.6804356
0.03353209 0.04212858 0.670226
0.03399219 0.04228126 0.6701458
0.04297724 0.0404642 0.6731624
0.04329 0.04066815 0.6727413
0.04279906 0.04054915 0.6727568
0.03904899 0.04081918 0.6730474
0.03846991 0.04100515 0.6727892
0.04010057 0.03972163 0.674843
0.04027379 0.0396996 0.6755496
0.01930754 0.04013282 0.6713009
0.01849055 0.04034992 0.6707801
0.01678729 0.04010588 0.6715466
0.01629712 0.03981035 0.6716188
0.0205615 0.04019429 0.6717144
0.0209664 0.04023635 0.6720356
0.01701888 0.03954866 0.672057
0.01321305 0.03990225 0.6714847
0.01191007 0.03996556 0.6721737
0.01465756 0.03967268 0.6714541
0.01605872 0.03933915 0.6719074
0.0138592 0.03998498 0.6710354
0.009540402 0.04052124 0.6714791
0.01219973 0.03995089 0.6721418
0.01879536 0.04007005 0.6718638
0.01086879 0.03916795 0.6495824
0.01048305 0.0391911 0.6494896
0.01766785 0.03963201 0.6723205
0.01324929 0.03911215 0.6736545
0.01312732 0.03892648 0.674081
0.01274708 0.0391351 0.6737849
0.01299107 0.03979627 0.6720428
0.01485198 0.03930288 0.6720976
0.01476771 0.0390249 0.6727058
0.01422767 0.0394675 0.6719344
0.02932915 0.03865853 0.6747696
0.02893952 0.03866041 0.6752033
0.03770903 0.03898468 0.6746038
0.03820721 0.03930145 0.6743806
0.01218352 0.03940282 0.6733898
0.008401456 0.03864894 0.6737455
0.008324962 0.03851587 0.6741264
0.01627359 0.03863873 0.6744009
0.01642629 0.03869652 0.6739685
0.0160937 0.03870022 0.6739891
0.008897228 0.03869032 0.6747531
0.008829831 0.03869274 0.674113
0.02160601 0.04009006 0.6729946
0.0214755 0.03989686 0.6735694
0.02468783 0.03606964 0.6458383
0.02048279 0.04024638 0.6722626
0.02001029 0.04020853 0.6723785
0.02973521 0.03951739 0.672793
0.03345496 0.03972218 0.6743835
0.02708635 0.04060572 0.6728805
0.0416107 0.03927773 0.6757008
0.04120086 0.03942873 0.6759348
0.04123477 0.03947592 0.6753906
0.0243999 0.04060375 0.6735086
0.02478099 0.04077286 0.672994
0.0243753 0.04020541 0.6740509
0.04073885 0.03967638 0.6750611
0.04063831 0.03978358 0.6743425
0.04357532 0.03971123 0.6751064
0.04304672 0.03947778 0.6748749
0.02811722 0.03913502 0.6744764
0.02451248 0.03980435 0.6744785
0.02693845 0.0392176 0.6751589
0.02368347 0.03815996 0.6761153
0.02323428 0.03782 0.6761447
0.02360904 0.03766547 0.6766042
0.02389028 0.03976727 0.6744122
0.02159792 0.03948924 0.6741244
0.02085845 0.03969394 0.6737349
0.03601898 0.03742529 0.6782482
0.03560048 0.03747195 0.6779957
0.02519152 0.03896106 0.6484599
0.03220155 0.03942578 0.675194
0.03183885 0.03956074 0.6744778
0.03266614 0.03958734 0.6747493
0.0236559 0.03921457 0.674938
0.02379008 0.04014849 0.673989
0.02564792 0.03904688 0.6485268
0.03603039 0.03918535 0.6747496
0.03620826 0.03951794 0.6742203
0.03663282 0.03913055 0.6746016
0.02755567 0.03763947 0.6481792
0.02004273 0.03876343 0.649325
0.02047065 0.03863846 0.6493017
0.0206666 0.03903386 0.6496159
0.0260819 0.03958171 0.6488235
0.04212752 0.03975118 0.6738377
0.04203235 0.04085614 0.6719714
0.04166144 0.0407437 0.6724119
0.04124659 0.03965831 0.674174
0.04086254 0.03989072 0.6738653
0.03926143 0.04024829 0.6736266
0.03946427 0.0398765 0.6740673
0.04511587 0.04027215 0.6748268
0.02616539 0.03871294 0.6483814
0.02977176 0.03901881 0.6734924
0.02548908 0.03955558 0.674948
0.02939185 0.03785504 0.6771663
0.02944585 0.03825144 0.6767107
0.0297233 0.03825285 0.6768861
0.03785079 0.03880843 0.6749954
0.03830456 0.03898346 0.6747998
0.04315594 0.03939664 0.6753259
0.04652442 0.0399895 0.6748482
0.04440775 0.04023021 0.6749962
0.04471367 0.04021028 0.6750719
0.03667878 0.04149826 0.6721777
0.03685274 0.04101309 0.672717
0.0401194 0.04143408 0.6721873
0.040476 0.04116857 0.6724318
0.04524149 0.04035209 0.6745024
0.05167646 0.0404861 0.6751016
0.05202859 0.04049262 0.6755714
0.05163771 0.0403378 0.6756504
0.05130938 0.04021941 0.6753283
0.03471841 0.03931914 0.6749492
0.03996828 0.03947897 0.6760984
0.04664391 0.04110316 0.6716718
0.04083536 0.0396262 0.6756243
0.03945183 0.03962473 0.674566
0.03857449 0.03689826 0.6797335
0.03900278 0.03700468 0.6797775
0.03877103 0.03722522 0.6793365
0.03396353 0.03935422 0.6750801
0.0342091 0.03963048 0.6745604
0.04458044 0.04043949 0.6746916
0.04240742 0.0403754 0.673012
0.04436719 0.04056524 0.6741527
0.07076678 0.04133835 0.6747786
0.0477879 0.04062264 0.6736388
0.0480459 0.0407655 0.6729997
0.05107389 0.0412049 0.6723971
0.0508273 0.04095798 0.672761
0.04718784 0.04011127 0.6748018
0.04672143 0.04003223 0.6742526
0.05359438 0.04070686 0.6737066
0.05329886 0.04087436 0.6732791
0.0530948 0.04084228 0.6738085
0.05547785 0.04037102 0.672628
0.0551003 0.0404617 0.6726622
0.05821476 0.03824445 0.6788828
0.0581212 0.03808224 0.6795103
0.05780759 0.03810653 0.6791586
0.04923589 0.04014167 0.6744731
0.04845497 0.04182487 0.6700373
0.04906482 0.0417054 0.6702567
0.04729524 0.0403032 0.673959
0.0478626 0.04049388 0.6742197
0.04799415 0.040973 0.6722871
0.04857568 0.04124158 0.6721833
0.04847926 0.04105127 0.6726528
0.03306757 0.04073724 0.6727873
0.03323252 0.04046638 0.6731952
0.03342716 0.04082989 0.6728613
0.03262897 0.04056671 0.672886
0.05221903 0.04062358 0.675101
0.05290755 0.04072776 0.6744483
0.05305541 0.04055306 0.675064
0.0534555 0.04023065 0.6753865
0.05383008 0.04063796 0.6733474
0.05334068 0.03983931 0.6760714
0.05269743 0.0403819 0.6755856
0.05166458 0.04133099 0.672237
0.050984 0.041471 0.6718145
0.05172986 0.03958268 0.6766989
0.05113739 0.03973017 0.6761495
0.04781332 0.03864907 0.6765302
0.05257278 0.04066634 0.6749143
0.05252089 0.04089143 0.673749
0.04714549 0.039849 0.6753226
0.04888071 0.04118012 0.6725746
0.05028202 0.04037301 0.6735942
0.05131494 0.04007753 0.6757696
0.05094495 0.03995689 0.6754548
0.04849964 0.04032001 0.6744768
0.04763443 0.03912999 0.6760102
0.05033095 0.03839384 0.678389
0.05046841 0.03867052 0.6778895
0.04996595 0.03857011 0.6779884
0.05159597 0.03846633 0.6782543
0.05777688 0.03948889 0.6759559
0.05791545 0.03981647 0.6754522
0.05734569 0.03975856 0.6753376
0.0516508 0.03807821 0.6787158
0.05204462 0.03812072 0.6786541
0.05075099 0.0382015 0.6787022
0.05101891 0.03794896 0.6791086
0.0512357 0.03810678 0.6787473
0.05109648 0.03836418 0.6783848
0.04915437 0.03840569 0.6781734
0.04902701 0.03817479 0.6784936
0.05805808 0.03833285 0.6782803
0.05793091 0.03845235 0.6776444
0.0575859 0.03837202 0.6779503
0.05387905 0.03954435 0.6763173
0.05439384 0.03939931 0.6764816
0.05050312 0.03951085 0.6763053
0.05075209 0.03955574 0.6763478
0.05057573 0.03940663 0.6766708
0.05020965 0.03935969 0.6763715
0.05047736 0.03961079 0.6758738
0.05420452 0.03802601 0.6784306
0.05469247 0.03823895 0.6779986
0.05453027 0.0388322 0.6774181
0.05615815 0.03859468 0.6774768
0.05037765 0.03983988 0.6749468
0.04630003 0.03982909 0.6738414
0.03879534 0.03974485 0.674113
0.03882649 0.03927805 0.6746596
0.04480356 0.0380939 0.6779843
0.04474334 0.0384953 0.6773856
0.02835761 0.03760299 0.6479658
0.04261004 0.03964468 0.6741676
0.04189846 0.04044838 0.6728219
0.04119387 0.04048142 0.6729463
0.04189665 0.04014694 0.6733111
0.04804437 0.04072588 0.6738231
0.04955987 0.04044888 0.6738123
0.0409047 0.04012198 0.6734752
0.04685199 0.03997994 0.6736399
0.04688446 0.03988675 0.6731845
0.04972894 0.03986855 0.6748931
0.04996029 0.04011992 0.6742871
0.04407667 0.04198362 0.6703198
0.04414942 0.04221544 0.6698783
0.04694847 0.04008708 0.6727905
0.04670689 0.03976414 0.6730334
0.04825875 0.03821836 0.6775483
0.04830115 0.03803375 0.6779756
0.04781257 0.03794912 0.6777909
0.04164357 0.03915041 0.6761608
0.02684927 0.03841721 0.6483663
0.04876499 0.03831926 0.6778436
0.03134998 0.03958332 0.673749
0.03516215 0.04049831 0.6737207
0.03530216 0.0400461 0.6739818
0.02710975 0.0377075 0.6481396
0.02700476 0.03795893 0.6483757
0.03619919 0.03982537 0.6739303
0.03658262 0.03974894 0.6738863
0.03958834 0.04058152 0.6732691
0.03412652 0.03983925 0.6741439
0.03564471 0.04025736 0.6737955
0.03626898 0.04021111 0.6736128
0.04084903 0.04177799 0.6706476
0.04073456 0.04159717 0.6712627
0.04635628 0.04030627 0.6724203
0.0336486 0.04014482 0.6737068
0.03993601 0.04198869 0.6710692
0.04007997 0.04176207 0.6716377
0.03990334 0.0403133 0.6734885
0.04003029 0.0406947 0.6731057
0.04046307 0.04039234 0.6732678
0.03313296 0.04017246 0.6735004
0.03257943 0.04022985 0.673367
0.04232384 0.04063278 0.6724764
0.03450724 0.04180915 0.6725094
0.03416836 0.04197167 0.6718922
0.03954691 0.04154509 0.6722272
0.03978442 0.0417388 0.6719159
0.0356524 0.04066015 0.6734807
0.03505156 0.04098294 0.6734291
0.03006829 0.03877642 0.6740161
0.02979283 0.0386331 0.6745587
0.03434698 0.0412965 0.6730894
0.0429746 0.04073218 0.672313
0.03314754 0.04205564 0.6701601
0.04259499 0.04081407 0.6719217
0.03456055 0.04113326 0.6733251
0.03196096 0.04033656 0.6728977
0.03422712 0.04223853 0.6711547
0.03508476 0.04216955 0.6714637
0.03933716 0.041888 0.6717268
0.03900715 0.04158226 0.6721925
0.05277611 0.04101551 0.6733302
0.05273743 0.04119189 0.6725318
0.04043053 0.03894337 0.6774288
0.04460776 0.04167863 0.6709838
0.04509954 0.04164826 0.6711397
0.04802612 0.04170543 0.6704713
0.0477728 0.04186324 0.6700988
0.04619016 0.04202117 0.6708189
0.0462659 0.04227265 0.6702371
0.04128005 0.04245345 0.6692279
0.04928651 0.04157561 0.6706569
0.04610794 0.04248993 0.6697528
0.04573381 0.04242935 0.6699573
0.04753377 0.04051731 0.6726748
0.04813522 0.03766996 0.6783392
0.04752013 0.0374828 0.6784615
0.0553078 0.04226487 0.6698222
0.05510275 0.0423496 0.6693064
0.05559513 0.04234317 0.6692515
0.04271591 0.04092893 0.6715759
0.04310459 0.04100973 0.6716893
0.04276645 0.04109472 0.6713197
0.04961402 0.04143352 0.6714296
0.03789775 0.04172877 0.6718638
0.03810987 0.04196425 0.6715469
0.03827253 0.04187133 0.6717924
0.03779104 0.0419559 0.6713994
0.03883278 0.04221108 0.6703852
0.0424906 0.04132903 0.6709614
0.04720167 0.04065438 0.6722218
0.04841299 0.0415685 0.6704466
0.04797586 0.04150208 0.6710883
0.04759727 0.04116762 0.6716613
0.04828165 0.04129986 0.6717088
0.03785822 0.04101291 0.6727344
0.04424433 0.04178283 0.6706502
0.0440949 0.04164104 0.6709672
0.04385433 0.04183785 0.6705679
0.04073203 0.04237943 0.6695602
0.0326697 0.0421246 0.6695778
0.03264736 0.04141055 0.6713167
0.04306521 0.04145445 0.671009
0.04450091 0.04198392 0.6703715
0.02335352 0.03625659 0.6798844
0.02367984 0.03619249 0.6803609
0.04054678 0.04079404 0.6727901
0.03624162 0.04095541 0.6729675
0.0321677 0.04071704 0.6724682
0.03883145 0.04125702 0.6725774
0.03930635 0.04124802 0.6726003
0.03624479 0.04204059 0.6713922
0.03272166 0.04091226 0.6724576
0.03320824 0.04105977 0.6724476
0.04651608 0.04170786 0.6711496
0.04734777 0.04032265 0.6732585
0.04385207 0.04129601 0.6714363
0.0442902 0.04147584 0.6712558
0.03832954 0.041497 0.6722378
0.04925108 0.0406591 0.6734975
0.05429126 0.04050148 0.6731615
0.05376609 0.04077581 0.6729037
0.0346601 0.0407541 0.6735651
0.03989515 0.04211546 0.6705085
0.05662858 0.04093373 0.671304
0.04542615 0.041785 0.6709853
0.04036996 0.04196882 0.6706991
0.03305633 0.04168903 0.671252
0.03350477 0.04154927 0.67203
0.03285699 0.04127589 0.6718979
0.03234177 0.04103646 0.6720666
0.03242344 0.04121794 0.6716189
0.04239536 0.04178729 0.6704295
0.04837916 0.02973856 0.6434669
0.04808957 0.0293439 0.643439
0.04786296 0.0298201 0.6436833
0.03716627 0.0390855 0.6744685
0.0371483 0.04203113 0.6712221
0.03666426 0.04230125 0.6707829
0.03909654 0.04216084 0.6707903
0.03938373 0.04209121 0.6711884
0.03970123 0.04197332 0.6714616
0.0381375 0.04261111 0.6684302
0.04033677 0.04241137 0.6695731
0.04967057 0.04198454 0.6701751
0.05020392 0.04148279 0.6715545
0.04042196 0.02678664 0.6492888
0.0402413 0.02633824 0.6488727
0.04769628 0.04214299 0.6696046
0.05612461 0.0407337 0.6716812
0.05556941 0.04113505 0.671564
0.05548188 0.04061582 0.6722161
0.03836321 0.02762571 0.6496841
0.03774408 0.02807477 0.6496046
0.0393864 0.04217378 0.6703991
0.03862191 0.04216674 0.6708453
0.03952074 0.04215978 0.670781
0.03482331 0.04195535 0.6722075
0.04357678 0.04169102 0.6708165
0.0435288 0.04192004 0.6704811
0.04137664 0.0412453 0.6713129
0.03487605 0.04178482 0.6725633
0.04873208 0.0413548 0.6717882
0.05232522 0.04100548 0.673181
0.05477955 0.04115681 0.6718818
0.03192861 0.04084639 0.6721169
0.03973538 0.04187983 0.6717028
0.03357508 0.04193957 0.6715025
0.03382541 0.04214905 0.6713898
0.02865276 0.03593984 0.6807241
0.02773161 0.03611411 0.6805158
0.06875911 0.04223126 0.6726735
0.05260198 0.03931225 0.6771908
0.0495618 0.03866647 0.6775995
0.05595408 0.03996143 0.6733647
0.05591134 0.03993891 0.6739704
0.05837878 0.04254405 0.6702208
0.05863213 0.04293994 0.6699329
0.05859178 0.04246324 0.6706461
0.05827874 0.04229173 0.670463
0.0655826 0.04190302 0.6730941
0.06608944 0.04196002 0.6732293
0.06695384 0.04161644 0.6744184
0.07073586 0.0435419 0.6699203
0.06748431 0.04320365 0.6701599
0.06688395 0.04309721 0.6705987
0.06674652 0.04339373 0.6701549
0.06582181 0.04223394 0.6727565
0.0664066 0.04251536 0.6725994
0.06631894 0.04224859 0.6729389
0.06694873 0.04265158 0.6725205
0.06997364 0.0415118 0.6742145
0.07052168 0.04139709 0.674223
0.05459134 0.04022193 0.6739895
0.05420063 0.04045889 0.6736789
0.06134492 0.04133359 0.6731627
0.06085185 0.04112167 0.6733428
0.06076634 0.04146017 0.6730155
0.07641824 0.04084698 0.6762252
0.06852018 0.04221814 0.6730807
0.06515901 0.04163536 0.6730686
0.06942011 0.0409869 0.675697
0.06886724 0.04104757 0.6752394
0.05876929 0.04080922 0.6739767
0.0590855 0.04036215 0.674533
0.05964037 0.04068791 0.6740618
0.06159558 0.0401122 0.6749684
0.06168215 0.04049216 0.6742725
0.06214641 0.04052187 0.6746587
0.05865296 0.04124667 0.6734131
0.05842949 0.04131221 0.6731367
0.05863197 0.04154984 0.6729844
0.06225488 0.04266851 0.6714213
0.05681286 0.04456883 0.6667076
0.05899183 0.04157833 0.6731849
0.05908861 0.04177955 0.6727322
0.07021272 0.03626769 0.6829064
0.07328285 0.04058681 0.6752434
0.07362481 0.04085815 0.6747513
0.07308982 0.0409517 0.674744
0.06383508 0.04074099 0.6744949
0.06945999 0.04163122 0.67425
0.05854609 0.04181498 0.6719391
0.05863508 0.04170687 0.6724907
0.06417815 0.04190857 0.6724037
0.06475542 0.04182247 0.6726437
0.06450369 0.04231837 0.672046
0.06493047 0.04066576 0.6744853
0.06449766 0.04060363 0.6746304
0.06862196 0.04234001 0.672017
0.0722117 0.03974406 0.6767366
0.06436845 0.04102432 0.673375
0.06460682 0.04129514 0.6730855
0.07418866 0.04211811 0.6734439
0.07326991 0.04207574 0.6734113
0.0738496 0.04169052 0.6738555
0.06887863 0.0413654 0.6748995
0.06873601 0.04150203 0.6745989
0.06725306 0.03927287 0.6782447
0.06793714 0.03949934 0.6776744
0.06828787 0.04190679 0.6739135
0.07035708 0.04145141 0.6750338
0.0670656 0.04091081 0.6752105
0.07028314 0.04149513 0.6745886
0.06723097 0.04036755 0.6758506
0.06663235 0.04018144 0.6760546
0.06708851 0.0399773 0.6764497
0.06525914 0.04226863 0.672397
0.06530696 0.04196608 0.6727964
0.06985364 0.04130678 0.6755596
0.073619 0.04262512 0.6724517
0.07043729 0.04128573 0.6755182
0.0696355 0.04158068 0.6738474
0.07011711 0.04100391 0.6759618
0.07086379 0.04094576 0.6759564
0.0695566 0.04233201 0.6717044
0.06979658 0.04260711 0.6713645
0.07017186 0.04226702 0.6717244
0.05830175 0.04112647 0.6732424
0.05828676 0.04085445 0.673591
0.06659018 0.04292063 0.671509
0.06628719 0.04310276 0.6709906
0.05922595 0.04271247 0.6709056
0.05868934 0.04216051 0.6713979
0.05912078 0.04237418 0.6716071
0.06305133 0.0430172 0.6702136
0.07311945 0.04247638 0.6727127
0.07282019 0.04228721 0.67298
0.07318775 0.04239868 0.6730316
0.06786124 0.04256036 0.6713743
0.06825085 0.04256751 0.6708499
0.07367592 0.04245947 0.6729838
0.07442947 0.04243262 0.6730751
0.06416282 0.04152276 0.6727269
0.05781648 0.04060474 0.6735761
0.05805884 0.04085746 0.673155
0.06809638 0.04248868 0.6718722
0.06778543 0.04071823 0.6753408
0.06696811 0.04279627 0.6716453
0.06377435 0.04221916 0.6721269
0.0599951 0.04178187 0.6726515
0.05981344 0.04156207 0.6730773
0.05955637 0.04177521 0.6727779
0.05399522 0.04197864 0.6712738
0.05418207 0.04312338 0.6686717
0.06029524 0.0415756 0.6729341
0.06007119 0.04200867 0.6722777
0.05396432 0.04153933 0.6717879
0.05331372 0.04146931 0.6720106
0.06360761 0.04186659 0.6724821
0.05452403 0.04166175 0.6715044
0.05509846 0.04155328 0.6713385
0.05468744 0.04195992 0.6710574
0.07052076 0.04059079 0.6763658
0.06965114 0.04047498 0.6763237
0.05521949 0.04191212 0.6708637
0.05417474 0.04033149 0.6742252
0.05709034 0.04195393 0.6700879
0.05515236 0.04002077 0.67403
0.05935179 0.04167168 0.6730711
0.06414901 0.04044209 0.6751099
0.063186 0.04054368 0.6750501
0.05931127 0.04128598 0.6734959
0.05955323 0.0419913 0.6723471
0.05898323 0.04205436 0.6720911
0.05926303 0.03972209 0.6755587
0.05957252 0.03941536 0.6759844
0.05835827 0.04205374 0.6709151
0.05805235 0.0415667 0.6714007
0.06405444 0.04296358 0.6711392
0.06415635 0.0431786 0.6706623
0.05976306 0.04227252 0.6719212
0.05936643 0.04224358 0.6719326
0.06308473 0.04078107 0.6745107
0.06136406 0.03818144 0.6799068
0.06102595 0.03857171 0.6794821
0.05456139 0.04005274 0.6745963
0.05400421 0.04010991 0.6750552
0.0628605 0.04276224 0.671297
0.06616417 0.04294888 0.6715853
0.05997425 0.04303422 0.6706807
0.05750526 0.04367345 0.6684887
0.05986619 0.04261905 0.6713921
0.05944122 0.04249702 0.6715685
0.06351369 0.04308528 0.6704982
0.06464663 0.04394384 0.6693758
0.06431749 0.04405677 0.6692193
0.06470718 0.04430616 0.6690581
0.06661221 0.04279222 0.672033
0.06531387 0.04342962 0.6702929
0.065401 0.04372701 0.6697446
0.07049893 0.04280747 0.6708481
0.06995102 0.04287997 0.6710488
0.07021376 0.0426016 0.6712934
0.07024279 0.04443028 0.669226
0.06438106 0.04345864 0.6700984
0.06479152 0.04330236 0.6705202
0.06485286 0.0436573 0.6698202
0.06631852 0.04357583 0.6699359
0.0628427 0.04391753 0.668838
0.06241611 0.04387353 0.6687959
0.07763872 0.04348393 0.6714141
0.07732136 0.04335219 0.67146
0.07736108 0.04345552 0.6710843
0.06023419 0.04333135 0.6701393
0.06424215 0.04368168 0.6696206
0.0599368 0.04366974 0.6692663
0.05957845 0.04337864 0.6697558
0.05558844 0.04191611 0.6706631
0.07288633 0.04358947 0.6692235
0.07349803 0.04364747 0.6694466
0.06838033 0.04324722 0.6699635
0.0638198 0.04389224 0.669216
0.05477049 0.04307819 0.6683436
0.05576573 0.04026178 0.6726034
0.05748468 0.04158296 0.6706167
0.05611627 0.0412677 0.6711267
0.05589847 0.04171624 0.6707488
0.06932866 0.04257134 0.6712081
0.05523131 0.04261436 0.6687938
0.07069437 0.04236295 0.6713188
0.05915325 0.04603471 0.6642013
0.05852176 0.0460256 0.6643155
0.05662463 0.04055082 0.671812
0.05396993 0.04105379 0.6723297
0.05690502 0.04037845 0.6723312
0.06003431 0.04455806 0.6665415
0.0600355 0.04414229 0.6670634
0.05951101 0.0442174 0.6670781
0.07197037 0.04287377 0.6700217
0.06176828 0.04526556 0.6656338
0.06126516 0.04476769 0.6663933
0.06085478 0.04552344 0.6653421
0.0689951 0.04237358 0.6715613
0.06809746 0.04284188 0.6703954
0.07204643 0.04330777 0.6695781
0.07140187 0.04337521 0.6697226
0.06845973 0.04241182 0.671414
0.07153698 0.04524689 0.6679447
0.07181317 0.04535196 0.6672095
0.07190709 0.04497528 0.6678782
0.0583867 0.04036037 0.6745817
0.05841945 0.03999444 0.6752487
0.05881415 0.04016185 0.6749281
0.05562836 0.04159397 0.6710514
0.06127184 0.04022876 0.6744587
0.06072621 0.04084742 0.6736298
0.06022856 0.04116238 0.6734354
0.06089364 0.04002576 0.6746829
0.06085572 0.03978749 0.6752042
0.0545612 0.0403799 0.673334
0.06037685 0.03927962 0.6776965
0.06100404 0.03939323 0.6776986
0.05567143 0.03957869 0.6755585
0.0555142 0.03922029 0.6764222
0.05614837 0.03930596 0.676149
0.06263165 0.0406447 0.6747173
0.05414695 0.03977569 0.6756399
0.05628568 0.0399365 0.6735767
0.05660727 0.0400417 0.6734238
0.05631221 0.03996147 0.6732091
0.05657166 0.04011289 0.6728969
0.05698157 0.04025108 0.6728976
0.056879 0.04018047 0.6732383
0.05790139 0.04086235 0.6726843
0.05766487 0.04057905 0.6729779
0.0611629 0.04086905 0.6735745
0.05814272 0.04059013 0.6740443
0.05751162 0.04065416 0.6724062
0.06167353 0.04089068 0.6737083
0.06538521 0.04067807 0.6746749
0.0620879 0.04132487 0.6733828
0.06271858 0.04030526 0.6756029
0.06340455 0.04030201 0.6756833
0.06240223 0.04040832 0.6751372
0.05727625 0.0403939 0.6727517
0.05659856 0.04128813 0.6708813
0.05477324 0.0407608 0.6723729
0.05445197 0.04061764 0.6727312
0.04137269 0.03819823 0.6783146
0.04163672 0.0379595 0.6786396
0.07266489 0.04224567 0.6710075
0.07245013 0.04215723 0.6714577
0.07314504 0.04227553 0.6714165
0.05605276 0.04007387 0.6728901
0.05621177 0.04031398 0.6723071
0.05781757 0.04011631 0.6749479
0.05730359 0.04038109 0.673292
0.06378715 0.02409385 0.6419745
0.05761731 0.03329028 0.6453015
0.05804582 0.03332168 0.6449325
0.05801794 0.0335252 0.645351
0.056961 0.04024106 0.6736783
0.05777725 0.04038636 0.6744344
0.06000289 0.04036836 0.6742697
0.05978901 0.04014824 0.6746206
0.05654413 0.04001534 0.6739511
0.05698971 0.04023734 0.6742197
0.05738128 0.04041603 0.6738597
0.0577219 0.04052429 0.674037
0.05741999 0.04041428 0.6742539
0.05540681 0.03983552 0.6746954
0.04983209 0.03919747 0.6762902
0.04958717 0.03922188 0.6760054
0.04998858 0.03936277 0.6759989
0.06361533 0.04008679 0.6761822
0.06336797 0.03999569 0.6767135
0.06269229 0.04002717 0.6763908
0.04719948 0.03786661 0.6778983
0.05239731 0.03798127 0.678891
0.06036263 0.03990327 0.6748244
0.0603743 0.04016449 0.6744351
0.06037324 0.0405647 0.6739902
0.05930299 0.04002472 0.6750312
0.06000348 0.0396864 0.6753489
0.04980399 0.0395554 0.6755126
0.04929319 0.03934685 0.6757052
0.05853314 0.03937825 0.6762705
0.05890877 0.0399332 0.6752829
0.04868396 0.03960294 0.6753401
0.04875599 0.03936153 0.6756701
0.05435944 0.03987907 0.6751254
0.05987798 0.03918622 0.6765443
0.06051951 0.03931263 0.6764147
0.06015142 0.03935097 0.6759972
0.05353657 0.03942412 0.6767216
0.05486997 0.03918827 0.6767722
0.05538603 0.03866023 0.6773867
0.05866744 0.03850965 0.6784347
0.05917527 0.03919159 0.676607
0.05861211 0.03902243 0.6768128
0.05726159 0.04016009 0.674682
0.05483009 0.03974267 0.6752498
0.06413618 0.040016 0.6761354
0.06404153 0.03991404 0.6765314
0.05962121 0.03906864 0.6772099
0.0564854 0.03983961 0.6748565
0.06617195 0.03993197 0.6763815
0.06637845 0.0396659 0.6768287
0.06553898 0.04039755 0.6753389
0.06594413 0.04086983 0.6748291
0.06601554 0.04403532 0.6694636
0.06633408 0.04458812 0.6689448
0.06180422 0.04359723 0.6689506
0.06209038 0.04382005 0.6686896
0.06462288 0.0399341 0.6761595
0.06425933 0.04012834 0.6757455
0.05481298 0.03951265 0.6759976
