# .PCD v0.7 - Point Cloud Data file format
VERSION 0.7
FIELDS x y z
SIZE 4 4 4
TYPE F F F
COUNT 1 1 1
WIDTH 1196
HEIGHT 1
VIEWPOINT 0 0 0 1 0 0 0
POINTS 1196
DATA ascii
-96.211368 39.976416 474.345504
-126.555984 41.9012928 473.640408
-93.06871199999999 39.4317216 476.26768799999996
-96.837408 39.043404 476.908272
-99.020592 38.249496 478.836
-97.776072 37.5178896 479.299824
-99.69429600000001 36.7158312 480.363408
-79.64748 35.7043752 482.682024
-89.275968 37.6525872 479.952648
-90.620064 37.880676 479.25453600000003
-88.786872 36.6592752 481.68216
-88.248744 36.1666656 482.454144
-93.08433600000001 36.1896912 482.79715200000004
-92.668968 35.6322744 484.13772
-97.866 35.676972 483.83244
-97.426584 36.6204096 480.60079199999996
-94.206312 35.7123312 483.98954399999997
-96.965856 35.33544 484.726896
-98.022528 34.8353208 485.634096
-98.24875200000001 35.248536 484.659216
-95.222448 34.2326736 487.434456
-87.547608 33.915290399999996 487.681848
-87.923448 33.3305352 488.820456
-88.819272 33.9107472 487.93572
-92.220984 35.099805599999996 485.2998
-93.65867999999999 35.0001 485.32766399999997
-84.292344 35.6854824 482.396544
-86.062608 36.5653224 481.15332
-84.936168 35.5433472 483.35976
-82.874376 35.4777336 482.49187200000006
-84.693672 34.9450632 485.687808
-85.80384 35.2801224 485.099208
-82.381176 35.2150776 483.678576
-76.146264 36.1291464 481.923504
-75.78223200000001 35.5778568 482.99767199999997
-71.911548 34.795764 484.487568
-73.32011999999999 34.8949224 484.175664
-70.74501120000001 34.642116 484.67311199999995
-73.721376 35.3243952 482.927688
-74.319264 34.6059288 485.14788000000004
-75.309912 34.3563048 486.10324799999995
-74.924928 33.837228 487.255176
-77.071824 33.5902896 487.886976
-78.49368 33.5015712 487.57147199999997
-73.864296 34.0907184 486.38793599999997
-73.58133600000001 33.408432 487.549728
-79.583256 34.6198752 485.534448
-80.306712 34.0656264 486.31751999999994
-86.13396 33.9723216 487.51588799999996
-85.9122 34.65612 486.2268
-84.806136 34.2879696 486.91072799999995
-83.58847200000001 33.9542424 487.742832
-85.890816 30.3983712 495.730656
-83.70071999999999 26.3553696 503.656848
-83.868984 27.639381599999997 501.421536
-78.61946400000001 22.6175904 511.509744
-80.083512 22.536266400000002 511.787952
-80.024544 30.391106399999998 495.65736000000004
-71.40646079999999 29.611836 496.591272
-78.72623999999999 30.2468904 495.545688
-80.14644 29.3240016 497.81915999999995
-79.366968 29.866716 496.625832
-78.297912 29.3001768 497.5974
-85.452336 31.305513599999998 493.969536
-80.915184 30.1010256 496.637424
-74.68459200000001 30.137860800000002 495.722736
-72.21636 29.9972232 495.846936
-69.182604 29.3697216 497.03292
-75.960072 31.6158048 493.509456
-72.724248 29.3287752 497.14977600000003
-79.424064 30.856759200000003 494.709264
-77.385744 31.504104 493.409016
-77.394816 30.1620168 495.531144
-81.202608 31.23468 494.74144800000005
-80.82763200000001 28.239048000000004 500.745888
-84.546864 29.391523199999998 498.42165600000004
-74.21832 29.3661144 496.904112
-76.028256 30.086373599999998 495.583344
-75.50712 29.4582384 496.66305600000004
-75.44260799999999 27.466876799999998 501.212952
-76.464 27.8225496 500.434128
-73.132992 28.0006488 499.9122
-71.61060959999999 29.079648 497.725056
-72.33984000000001 28.664625599999997 498.70353600000004
-76.17160799999999 29.066313599999997 497.436768
-74.533752 28.038297599999996 500.080824
-74.405736 26.6895 502.464096
-73.82412 27.259754400000002 501.094296
-72.76413600000001 26.842118400000004 502.08811199999997
-76.910112 29.6322048 496.764648
-77.020992 29.0547216 497.77236
-75.22502399999999 28.8538128 497.784816
-76.28472000000001 28.6229808 498.33144000000004
-75.659472 27.9887688 500.07995999999997
-76.495608 28.2588696 499.452264
-77.473944 28.6967016 498.71124
-79.02158399999999 28.708048799999997 498.97943999999995
-78.385104 27.6363576 501.308352
-79.835616 27.527522400000002 501.567336
-79.45272 28.2152304 500.347368
-76.371336 26.0074584 503.62797600000005
-77.742288 28.174910399999998 500.10753600000004
-76.96634399999999 27.5143032 501.35256000000004
-77.82652800000001 24.385953599999997 507.90801600000003
-77.356008 24.9673896 506.663064
-75.111768 26.073468 503.78796
-82.207728 26.3503584 503.431848
-82.895544 25.0628544 507.63067199999995
-81.706896 27.0283176 502.442784
-85.92876 26.1429264 504.96739199999996
-84.33972 25.815859200000002 505.10016
-85.52433599999999 27.4919256 501.16636800000003
-87.217848 27.120023999999997 503.201736
-86.006952 27.034848 503.25508799999994
-87.1038 27.288633599999997 501.043536
-89.711136 26.511084 504.12168
-91.345248 27.168206400000003 503.543304
-91.18670399999999 26.4806424 504.872064
-88.835472 25.887679199999997 505.21824
-79.145424 23.6509416 453.57516
-89.118 27.0293184 501.89983199999995
-88.616664 26.857713600000004 503.04679200000004
-88.36912799999999 27.171943199999998 501.129504
-87.77815199999999 26.9649072 502.000344
-80.441568 25.0598376 506.52396
-93.839256 24.962443200000003 508.13445600000006
-86.141952 28.9569384 499.11033599999996
-86.08644 29.603563200000004 498.275064
-91.062072 27.707472 502.342632
-91.91736 28.024884 501.553728
-90.819216 27.9109224 501.472368
-92.56341599999999 26.687894399999998 504.37728000000004
-92.292696 27.6829128 502.55769599999996
-96.67475999999999 27.316843199999997 503.330544
-95.591952 27.9179208 502.18293600000004
-94.76092799999999 27.4414176 502.94433599999996
-93.53808000000001 27.5391576 502.708608
-92.42431200000001 29.7890856 498.10485600000004
-92.069136 29.0826144 499.53650400000004
-95.344704 28.434038400000002 501.09631199999995
-94.78296 28.9002168 499.957992
-94.057992 28.3657176 500.836392
-97.07148000000001 29.1841488 498.94423200000006
-97.715304 29.650284 497.84284799999995
-97.49196 27.7915104 502.58412
-96.25104 28.8953136 500.10659999999996
-94.439592 27.955512000000002 501.91056
-88.518672 24.852189600000003 507.218184
-97.17091200000002 26.6991264 504.465984
-97.22440800000001 25.87698 505.86919199999994
-98.601696 26.437392 505.317528
-95.40374399999999 26.8775496 504.021096
-98.65641600000001 25.6359672 506.54973600000005
-96.268536 25.1862696 507.896712
-93.815856 26.940168000000003 503.746992
-96.758496 30.0187512 496.822536
-96.78787200000001 28.2667608 501.49692
-91.21816799999999 28.3155264 500.64393600000005
-78.496848 25.423480799999997 505.643544
-98.19194399999999 30.200536800000002 496.63259999999997
-73.36000800000001 -1.6937928 435.31941600000005
-75.295008 -1.5310504799999998 435.93084000000005
-74.092752 9.3013128 447.552864
-97.068528 30.465719999999997 495.31644
-89.751384 30.3413904 497.63232
-90.66470400000001 29.867781599999997 498.49804800000004
-89.190072 30.564518399999997 495.78768
-93.542256 28.874267999999997 500.00716800000004
-93.779856 29.3121576 498.994056
-92.757816 30.272616 496.82858400000003
-87.686352 29.8420344 497.71483199999994
-88.58253599999999 30.1288176 496.967256
-91.057896 30.331915199999997 497.089224
-94.048776 29.757564 497.702304
-87.766272 30.3174288 495.70365599999997
-89.938728 31.020897599999998 494.87234399999994
-83.33416799999999 31.6059336 493.54632
-89.486784 31.6233792 493.65547200000003
-88.21461599999999 32.3938872 491.520096
-88.23384 31.836024 492.780312
-89.53984799999999 32.294944799999996 492.227928
-95.7798 31.313383199999997 492.98493599999995
-97.970472 30.7987704 494.408304
-98.149248 31.2731712 493.463016
-94.724424 31.984588799999997 492.385104
-91.126152 32.1845472 492.904512
-94.777632 32.850252000000005 491.18277600000005
-85.368816 18.4774752 448.990992
-88.515936 19.5844968 448.23679200000004
-96.390216 32.674859999999995 490.51548
-97.417296 32.16834 491.25945600000006
-81.63820799999999 33.300727200000004 489.10449600000004
-96.8688 33.261537600000004 489.26325599999996
-92.86293599999999 33.9098616 489.17476800000003
-89.451144 32.6786976 490.772016
-90.74051999999999 32.7425976 491.454792
-83.009304 33.4516608 489.07713600000005
-83.82708 32.770094400000005 490.19119199999994
-84.426552 33.3792216 488.991528
-84.94610399999999 33.774372 487.97452799999996
-88.100712 31.2471216 493.751664
-87.018624 32.0134608 492.159024
-81.382464 34.186629599999996 486.284616
-81.13672799999999 33.6987432 487.04623200000003
-79.362144 32.114714400000004 491.928408
-80.499528 31.7369016 492.947352
-81.85989599999999 32.0354064 492.56517599999995
-80.728992 32.1947568 491.933808
-80.449776 30.9240504 494.97868800000003
-80.365032 31.311504 494.12095200000005
-78.07579199999999 30.7851048 494.493336
-82.412064 33.0529896 490.305168
-85.42720800000001 32.730919199999995 490.144392
-80.247312 32.4979992 490.95432
-81.017064 32.941476 490.10364
-79.397856 32.887094399999995 488.569104
-71.35133760000001 34.2263736 485.574552
-72.83412 34.520522400000004 485.487576
-72.227592 33.7471272 486.747072
-72.319608 33.1509096 488.058552
-78.069096 31.885135199999997 492.367896
-79.008696 31.3577064 493.371288
-75.21328799999999 32.0976432 492.423264
-78.505344 32.757429599999995 489.98527199999995
-78.091488 32.493391200000005 491.28652800000003
-77.12539199999999 32.7985632 490.448952
-76.09248 33.0825888 489.22351199999997
-72.021456 32.0660712 491.765544
-74.297088 32.669352 489.92508
-74.70381599999999 33.235416 488.425176
-72.372384 18.8596368 449.838288
-73.391976 19.9821384 451.776024
-73.910304 13.724978400000001 531.761472
-72.24192 13.237732800000002 532.08144
-70.5946536 17.944308 447.65020799999996
-73.457784 16.6071168 449.900424
-80.185752 19.6158744 451.75975199999993
-78.41613600000001 17.1606384 451.36584000000005
-80.956512 21.175480800000003 452.101464
-83.56932 21.697308 451.096776
-82.60617599999999 19.0167336 450.41882400000003
-80.224416 17.9855784 451.05804
-89.203104 21.2337144 448.63984800000003
-85.539168 20.3695776 449.801208
-79.175952 20.7185256 452.65248
-90.734688 19.1483208 447.374088
-91.860336 18.273412800000003 446.72436
-93.447072 17.3896848 445.897224
-92.41588800000001 16.0978608 445.659192
-91.44576 15.154703999999999 445.6458
-90.55152 15.758316 446.246424
-96.78564 16.795223999999997 442.367568
-99.986256 24.491088 438.14138399999996
-98.959392 24.3263808 440.30822399999994
-100.13076000000001 25.813972800000002 438.2514
-96.83964 18.2802816 443.04955199999995
-96.406776 18.8490672 444.12040800000005
-101.064168 26.5136688 436.514472
-100.88892000000001 27.4910688 437.214816
-101.77293600000002 29.0976048 435.734424
-95.19523199999999 17.3916 445.194432
-97.778952 17.3541888 441.05479199999996
-101.410632 3.67830432 430.09387200000003
-100.81692 1.603116 430.336512
-97.24824 20.19492 443.03133599999995
-98.228448 19.556596799999998 441.192168
-102.311928 3.4659568800000002 428.47552800000005
-100.72944 23.8664448 436.78864799999997
-100.96747200000001 25.4366568 436.319568
-97.60881599999999 22.4754984 442.973592
-96.29517600000001 20.66472 444.81916800000005
-97.973856 24.630408 442.496232
-98.233416 28.764302400000002 443.46959999999996
-97.978176 26.4778992 443.07691199999994
-95.980968 27.0640368 447.411456
-94.630248 26.153949599999997 448.24435200000005
-97.037136 28.201305599999998 446.020416
-96.308784 28.13958 447.50462400000004
-95.76244799999999 25.670282399999998 446.993496
-96.773184 25.184671200000004 445.530528
-97.254 24.631984799999998 444.27348000000006
-96.41613600000001 23.6020608 445.74012
-97.07565600000001 23.463489600000003 444.22452
-86.997888 22.491864 449.976528
-86.141952 24.164870399999998 450.80964
-91.14314399999999 20.4287472 447.655176
-91.633608 21.6111888 447.988464
-83.657664 27.4303296 452.941056
-85.18896000000001 25.635571199999998 451.66622400000006
-76.204656 22.122072000000003 513.354816
-75.89052 21.6814176 514.3892400000001
-77.673456 21.106296 453.21148800000003
-78.349176 26.2983024 503.11900799999995
-78.762816 27.0147312 502.128144
-83.438496 24.3405288 451.85846399999997
-97.39958399999999 25.3435968 507.18312
-96.02568 25.4403936 506.606472
-82.93651200000001 25.383722400000003 506.027808
-95.734368 26.1521856 505.41479999999996
-95.21028000000001 24.976706399999998 508.663296
-89.587872 25.280841600000002 506.35468799999995
-79.511184 25.9538904 503.63157599999994
-88.223472 27.8923608 500.31036
-85.64716800000001 25.656588000000003 506.068272
-81.35114399999999 25.7741064 504.309096
-80.77788 26.312112 503.211456
-80.33097599999999 25.7960232 504.15912
-77.284008 25.7226624 503.98055999999997
-94.80664800000001 25.5766176 506.19117600000004
-90.080568 26.0297568 505.31335199999995
-92.393352 25.9547616 505.55498400000005
-93.47745599999999 25.393824000000002 506.633472
-97.562592 24.910984799999998 508.469256
-96.485976 24.827889600000002 509.071824
-94.858272 24.0917904 510.75820799999997
-95.588496 23.973458400000002 511.76347200000004
-96.06859200000001 24.2049312 510.731208
-92.662488 24.410664 509.916888
-91.34208000000001 24.3430704 510.20027999999996
-92.06229599999999 25.383167999999998 506.53656
-92.326248 25.065957599999997 507.76444799999996
-89.705736 24.665148 507.91773600000005
-90.97632 25.1699616 507.10427999999996
-96.595776 24.439298400000002 509.96476800000005
-94.925088 25.158643199999997 507.331152
-90.486936 24.5555856 509.20632000000006
-91.82376000000001 24.687770399999998 509.01372
-91.08237600000001 24.7653792 508.16311199999996
-84.65075999999999 23.3306208 512.998704
-88.23463199999999 23.3028648 512.428032
-90.35200799999998 22.3753032 513.69624
-87.385464 24.365088 509.41929600000003
-88.173432 24.664363199999997 508.326192
-88.283808 23.809233600000002 510.84396
-88.996752 24.339463199999997 509.353416
-91.22083199999999 22.524408 513.300744
-94.22215200000001 18.4179888 522.802224
-94.714776 18.9554112 521.69832
-80.91396 21.5105832 513.971208
-95.80248 20.2367808 519.529176
-96.27580800000001 20.8677384 518.465232
-87.260976 23.6841624 511.864848
-85.949208 23.8171968 512.2118879999999
-89.517672 23.3554896 511.814088
-98.604288 23.4227592 513.774144
-81.18756 24.8752872 507.80152799999996
-96.572808 23.949064800000002 511.474176
-97.507152 23.8426776 511.797888
-96.481224 23.74344 512.4562559999999
-95.34801600000002 23.551322399999997 512.95752
-97.51140000000001 23.5734624 513.052776
-94.096872 24.5419776 509.56416
-89.930016 24.02208 510.460344
-92.223288 23.8594608 511.051248
-98.742168 21.3111648 518.060664
-99.91368 20.6021376 519.2046
-96.220008 19.2648168 521.6774399999999
-98.49888 20.3669856 519.119208
-98.153496 19.7735472 520.1964
-96.465312 22.1730624 516.478392
-95.364864 21.5406072 517.321152
-95.268312 19.803456 520.689816
-97.16385600000001 20.2704624 519.33996
-95.91530399999999 22.447267200000002 515.33136
-97.041168 21.629347199999998 517.658976
-98.0064 22.053290399999998 516.7258559999999
-97.34882400000001 22.7167992 515.4703920000001
-81.980424 21.4772544 514.573632
-94.90946400000001 18.1034928 523.883016
-93.787056 17.9679096 523.582848
-92.43324000000001 17.1277416 525.121128
-91.90332 19.5507216 520.338096
-94.59187200000001 20.081944800000002 519.66756
-93.42727199999999 20.052172799999997 518.96844
-95.28530400000001 17.5258296 525.1075920000001
-96.690528 18.2718144 524.2247279999999
-95.63868 18.737316 522.88812
-84.416256 15.8749056 528.214104
-90.95904 17.9932032 523.725192
-92.738376 17.7663024 523.70892
-93.178944 18.296784 522.929088
-88.374456 18.0037224 523.436976
-89.947728 18.963770399999998 521.74296
-93.269016 18.7856928 521.779608
-94.230864 21.7425816 516.2664960000001
-93.72448800000001 20.9329848 517.474872
-91.89345599999999 23.091933599999997 512.306064
-93.16224000000001 22.9328424 512.7810479999999
-91.11362400000002 22.0166856 514.5618959999999
-91.47211200000001 21.4429032 516.039984
-92.415528 21.9792816 514.919448
-91.804752 20.683799999999998 517.8558959999999
-90.220392 21.065983199999998 516.949848
-89.667576 21.9168792 514.806912
-88.170768 22.0071816 514.593072
-89.599248 21.4152768 516.040344
-88.798176 20.876616000000002 516.826656
-90.912168 23.614761599999998 511.3854
-94.245408 23.029344 513.396576
-93.28766399999999 22.5381744 514.038384
-93.60828000000001 22.0577544 515.152728
-94.732128 22.2882336 515.242728
-95.303736 22.851489599999997 514.198728
-83.486448 24.741475199999996 509.17370400000004
-87.648624 21.3164568 515.98224
-86.701464 22.0121352 515.032344
-85.1076 21.989952 515.240352
-79.76088 21.508178400000002 513.9861840000001
-80.491464 21.930645600000002 512.962992
-74.685744 21.4606512 515.11248
-71.6813784 17.144438400000002 523.34496
-83.453112 21.646418399999998 515.059344
-87.135048 20.690496 517.4408159999999
-84.166344 20.9204568 516.302136
-85.22589599999999 20.4106968 517.336848
-66.7950192 13.7980872 529.293312
-68.802948 13.899448799999998 528.949368
-83.59128 22.893141600000003 513.342936
-82.929384 22.2040872 513.944712
-82.44878399999999 24.1419456 510.44918399999995
-78.11107200000001 23.326689599999998 510.16068
-80.468208 25.5520152 505.17928800000004
-79.555536 25.445664 505.816272
-81.696312 22.08186 513.4526639999999
-83.510208 23.503463999999997 512.45208
-77.15124 22.7220552 511.4124
-79.138008 21.981384 512.759304
-82.376784 23.4849816 511.84404
-82.56168 22.8282912 512.93736
-86.739624 24.1435296 510.797664
-81.90835200000001 24.574219199999998 508.96591199999995
-84.998736 24.712905600000003 509.44017599999995
-79.529688 23.8946616 509.362632
-85.768632 24.966273599999997 507.132288
-81.140472 23.3178984 511.119
-78.38913600000001 24.024672 508.92991199999994
-80.882568 23.946069599999998 509.876424
-81.610344 25.464528 505.559808
-81.80784 25.2189 506.723184
-83.363832 24.0392664 511.479
-84.513528 24.094116000000003 511.806816
-72.801864 22.900247999999998 511.54581599999995
-73.542024 22.2801336 513.460512
-72.988416 23.506912800000002 510.05476799999997
-77.270184 25.384572 505.279584
-77.008536 23.802336 509.189832
-82.272816 17.2392192 524.8373760000001
-82.867824 18.8251272 521.08884
-75.862728 22.982832000000002 511.62710400000003
-72.475992 25.058836799999998 505.57212
-74.49112799999999 25.396077599999998 505.18692
-72.664992 24.4156536 507.150288
-76.086792 25.6489272 504.742464
-74.511936 23.007679200000002 511.84591199999994
-74.254104 23.3475912 510.572088
-71.2717416 26.4608136 502.58354399999996
-71.4282264 27.2928456 501.322392
-73.168128 23.8528512 509.05792799999995
-69.4632312 26.4323088 502.726176
-70.8816672 25.651555199999997 504.01151999999996
-72.440136 23.954889599999998 508.320648
-72.211032 23.622796800000003 509.30215200000004
-71.10802079999999 23.204664 510.34413600000005
-69.507684 23.7379464 509.14497600000004
-68.512824 23.2516656 510.79240799999997
-74.814408 24.330204000000002 454.925808
-67.936788 17.674387199999998 447.063192
-66.90953520000001 18.301759200000003 446.73465600000003
-75.528792 23.683643999999997 509.759496
-73.939824 19.0959264 451.99699200000003
-74.7054 18.7720848 452.530728
-81.91324800000001 16.2446472 449.608032
-79.93713600000001 16.4644848 450.54633599999994
-80.214264 20.6256096 516.68352
-70.7847912 13.127724 532.550016
-71.0013816 13.5620208 531.3724559999999
-70.3701288 16.7319432 524.274264
-70.7629824 15.7403592 525.54816
-69.4341216 12.905200800000001 532.798272
-76.14331200000001 12.280896 449.83166400000005
-74.12508 14.138726400000001 449.34127199999995
-73.678896 13.128948000000001 448.58750399999997
-74.32048800000001 15.3784224 450.34970400000003
-70.8529968 10.095444 445.52786399999997
-72.166464 10.7254872 446.91595199999995
-72.80279999999999 8.582112 446.368968
-75.037536 4.991741279999999 445.90528800000004
-93.20011199999999 15.0681456 445.03452000000004
-73.73268 6.5735496 445.89621600000004
-83.61050399999999 13.820198399999999 448.037496
-86.47257599999999 14.403852 447.28812
-85.31236799999999 13.3502688 447.26529600000003
-69.84504720000001 17.005089599999998 447.14102399999996
-70.0437024 14.0151528 446.71622399999995
-68.8331448 14.13144 446.138856
-75.252384 11.132920799999999 449.030664
-74.17519200000001 12.066292800000001 448.648704
-73.315944 12.3333336 448.1856
-75.03408 9.8309088 448.404264
-75.694824 8.4482208 448.08696
-81.473112 14.300330399999998 449.08214399999997
-81.383832 12.10104 448.11295199999995
-81.304632 13.0491144 448.51284
-83.193264 12.711996 447.75050400000003
-80.91741599999999 10.9247616 447.95930400000003
-78.22476 5.795685359999999 446.581656
-87.954552 15.894756 447.24261599999994
-82.517184 15.498036 449.09510400000005
-84.716208 16.621308 448.62789599999996
-90.913248 16.8626016 446.48877600000003
-79.453656 13.2451776 449.28388800000005
-80.48304 15.3380016 449.804088
-79.743456 12.0741912 448.719048
-79.81840799999999 8.5125384 447.46884
-85.57113600000001 6.8068764 445.213728
-81.856008 9.3529152 447.035976
-83.778768 8.1572832 445.92940799999997
-83.807568 10.8208944 446.999112
-72.726912 13.185108 447.99638400000003
-72.410904 12.3013152 447.537672
-71.0676576 12.611440799999999 446.69556
-79.787592 1.18472904 444.86762400000003
-78.207912 1.5107184 444.901392
-85.51907999999999 12.279708000000001 446.742432
-79.59571199999999 4.6864836 446.18983199999997
-78.93648 3.36715272 445.89254400000004
-80.909928 3.64691736 445.57948799999997
-83.740104 4.53180456 445.12516800000003
-71.3471616 24.2094456 507.541464
-78.915384 -1.1136924 444.03012
-78.44256 -2.6160645600000003 443.48940000000005
-93.540744 7.6177728 442.00548
-95.303592 8.9602848 441.672768
-82.524456 -2.79343152 443.458224
-82.011456 1.9994414400000002 444.854232
-83.067336 0.275103936 444.087504
-80.500968 -1.3364035200000002 444.04610399999996
-81.57132 -1.93900176 443.839464
-80.53437600000001 -2.2661193600000002 443.843424
-80.620272 0.07325964 444.312504
-82.985544 -1.34544456 443.73038399999996
-81.849744 -4.06191456 442.875528
-86.893272 8.688938400000001 444.917376
-91.93212 12.538468799999999 444.47976
-90.01007999999999 11.402603999999998 444.68409599999995
-92.381184 11.280355199999999 443.743776
-87.888096 13.535006399999999 446.43816
-86.98406399999999 11.185848 445.76136
-94.193784 10.9023264 442.937592
-88.332624 10.1781936 444.81520800000004
-75.36686399999999 -0.419256 443.98555200000004
-74.93688 -5.09408352 442.74888
-82.978488 -2.42686152 438.48432
-82.554048 -1.56526344 437.013504
-84.900672 -0.607750992 443.600784
-77.566248 -2.75133168 438.34139999999996
-89.88847200000001 6.4043028 443.531376
-91.47902400000001 8.0191224 443.090952
-89.62164 4.5210528000000005 443.32725600000003
-87.350184 5.395657679999999 444.24576
-93.15684000000002 -0.98504784 441.04845600000004
-93.06144 -2.01778776 440.211168
-84.235752 -1.8708192000000001 437.784696
-84.05942399999999 -1.16698176 436.41864000000004
-91.70553600000001 6.21769392 442.645272
-91.74196799999999 4.48942968 442.42344
-97.35436800000001 2.97833976 438.082272
-90.194544 2.06657568 442.62784800000003
-93.253104 3.54483432 441.52725599999997
-90.01274400000001 -0.696414672 441.99216
-91.556712 -1.32697224 441.385632
-93.400488 5.85387864 441.508752
-87.377904 -0.6118866000000001 442.81548
-92.439072 9.865872 443.112336
-89.844408 9.2019024 443.943432
-93.533616 8.879868 442.520352
-97.207704 15.0663024 441.05392800000004
-97.74208800000001 12.8580048 439.38057599999996
-99.459144 12.855326400000001 436.561776
-97.809336 11.0388384 439.087104
-97.46683200000001 14.217292800000001 440.24328
-96.519888 12.852928799999999 441.344376
-98.17228800000001 15.736716 439.733808
-97.397784 9.2880864 439.220592
-98.065008 8.267508000000001 437.715792
-96.42996000000001 8.610732 440.676432
-96.91754399999999 7.827624 439.598952
-96.607872 9.8740296 440.786016
-94.526424 2.24757576 440.51191200000005
-97.541712 3.16735992 436.80888
-97.176456 4.93934832 439.03461599999997
-92.19434399999999 -1.9344088799999999 440.83655999999996
-94.945464 5.31822168 440.49715199999997
-96.29258399999999 4.63832856 439.784064
-97.437384 7.05900816 438.50196
-95.509152 7.2922176 440.91792
-95.454432 1.01974968 439.978608
-94.435992 0.201453408 440.824896
-95.747328 0.177704424 439.16860799999995
-83.39227199999999 -3.53121048 442.78092
-86.433696 -2.76153048 442.40904
-84.934944 -3.20492664 442.69192799999996
-84.24763200000001 -3.88687608 441.92714400000006
-85.52541599999999 -3.6518349600000004 441.98301599999996
-85.597704 -1.93537008 443.09311199999996
-90.704448 -2.9257502399999997 439.850448
-97.24262399999999 -0.0503863776 437.297472
-95.434416 -0.297872856 440.168112
-94.345848 0.708282936 432.822024
-95.92754400000001 -1.5675573600000001 437.90630400000003
-96.913296 -1.63161792 436.991976
-92.222352 -0.76501512 435.66552
-91.37786399999999 -0.10432936799999999 434.582928
-96.72192000000001 2.16934848 438.55300800000003
-97.91359200000001 4.52842128 436.476744
-99.06249600000001 5.24383848 434.65744800000004
-97.489368 5.1530169599999995 437.645736
-97.44811200000001 6.021974159999999 438.161472
-93.534336 1.61703792 430.915752
-96.689232 1.6847222400000001 430.971048
-104.146128 13.584276 422.558712
-90.824832 -0.9483400799999999 436.08938400000005
-92.232144 0.7546564800000001 432.73332
-89.86212 0.558753768 433.05876
-85.371408 39.4791192 408.668544
-85.786488 40.498156800000004 409.43944799999997
-86.081976 -2.0842452 438.50116800000006
-87.362424 -1.37730888 437.490864
-65.7977544 9.6156576 404.53524000000004
-64.4588928 10.2734424 403.791768
-64.3335912 9.428544 404.969328
-71.05302 -1.5980868000000001 434.46564
-69.8953608 -1.06060752 433.47117599999996
-72.471816 -1.06381584 433.96732799999995
-75.868416 -2.58757272 438.02200799999997
-87.453792 0.11351455199999999 433.86587999999995
-87.36624 -0.7684120799999999 435.93408
-89.077824 -1.26736848 436.872816
-88.5402 -2.319948 438.833448
-92.507688 -2.29629024 439.04663999999997
-81.34092 -2.34430704 438.04879200000005
-79.35753600000001 -2.57120856 438.229368
-77.604624 -1.73608488 436.696128
-74.14164 -3.01525704 438.460128
-80.27568 -1.13464008 435.938616
-82.93896000000001 -0.47518315200000005 434.9592
-84.823632 0.7650806400000001 432.30333600000006
-76.8312 -3.4619428799999996 439.470432
-77.730048 -3.9366590400000003 440.541
-73.75348799999999 -2.28684024 436.73623200000003
-71.9861904 -1.93964328 435.221352
-73.04292 -2.93105952 437.67820800000004
-73.92636 -2.61764064 437.572296
-72.16408799999999 -2.60001144 436.48992
-66.7777536 -2.38873176 435.842352
-61.1337744 -0.681759216 433.75744799999995
-60.8881896 1.0839700799999998 431.272296
-69.48161280000001 11.806948799999999 445.061232
-68.01318 12.3941088 444.35635199999996
-65.74355279999999 -2.01632544 435.092976
-65.3501592 -1.60570368 434.263824
-64.2896784 -1.23683328 433.904256
-64.5844824 -1.9334808 435.139344
-62.7312024 -0.661631112 433.59588
-56.33811360000001 1.0723643999999999 431.239464
-57.4444008 -0.06666624 433.508472
-57.9044592 -1.22215608 433.15905599999996
-59.860368 -0.32193972 435.281184
-60.414861599999995 5.57232696 412.42442400000004
-62.0302464 5.14005984 412.166448
-61.320801599999996 5.972776560000001 410.99796000000003
-62.781148800000004 4.7323224 413.18467200000003
-63.46833839999999 4.9949316 412.20144
-63.498888 -3.1518612 437.31021599999997
-61.947396000000005 -3.06093744 436.770576
-64.648584 -3.563388 437.68044
-64.2506688 -2.34434808 438.197328
-63.819359999999996 -0.684806256 438.602976
-65.362752 -1.8495676799999998 439.17825600000003
-71.55240479999999 -3.3139944 437.91681600000004
-70.5535416 -3.0137810399999996 437.01624000000004
-66.7524816 -3.9948408000000004 438.653088
-65.7028584 -3.36201768 437.589
-66.4368912 -1.63415664 434.165328
-73.00872 0.522117576 443.3094
-72.173376 2.5786353600000003 443.233296
-73.961352 2.465424 444.30602400000004
-75.014856 3.56165352 445.25894400000004
-75.365856 2.3645426400000003 445.151664
-76.130424 2.9039724000000002 445.75848
-70.016364 -3.7792922399999997 440.87608800000004
-71.8078968 -3.8924431200000003 441.79272
-72.948816 -4.8139308 441.22896
-67.27424400000001 -3.2249124 439.82316
-66.65914079999999 -1.0653911999999999 439.91560799999996
-65.875248 0.696657744 439.80624
-68.0991552 0.158797512 440.62344
-68.5159992 -2.25817488 440.61119999999994
-68.21748720000001 -3.97332 439.022952
-68.6209896 -3.99219768 440.156592
-73.51639200000001 -2.07803232 443.012688
-74.995848 -3.46884552 443.2212
-73.525608 -4.30544592 442.50883200000004
-62.531279999999995 20.743776 445.529088
-61.9799688 24.011330400000002 446.95317600000004
-71.23903200000001 7.7935392 444.563928
-68.87538 8.2479744 442.932264
-65.9946456 17.4787848 445.9248
-65.1786048 16.681874399999998 444.94293600000003
-69.733548 12.9323952 445.908096
-66.9724992 22.7973312 448.894296
-69.23491920000001 18.307476 447.53616
-69.1048368 16.129375200000002 446.685768
-71.298936 18.650772 448.45214400000003
-71.7585984 19.135972799999998 449.261064
-71.8264512 20.0451744 450.19036800000003
-66.0141864 23.218524 448.320312
-69.2890848 23.4168552 450.55699200000004
-67.996224 22.241728799999997 449.331192
-67.771368 14.432335199999999 445.560336
-68.358204 15.3392832 446.1894
-68.06643840000001 16.496172 446.509296
-72.89481599999999 14.268448800000002 448.279632
-70.3826208 15.538615199999999 447.04137599999996
-71.6637528 17.3719944 448.018416
-68.5019376 13.2223752 445.27824000000004
-67.4784 13.650631200000001 444.800232
-64.8826272 17.9947008 445.526208
-65.8138536 18.8496936 446.30301599999996
-66.573144 14.7424032 444.966984
-65.6641728 15.5920608 444.693672
-67.0404096 11.8562472 443.308536
-67.2396192 10.0549512 442.553832
-66.6584712 13.4075232 444.04776
-63.518270400000006 19.9304928 445.60778400000004
-63.539892 18.4388328 445.03948799999995
-65.609928 11.47734 442.35936000000004
-62.2878696 14.853297600000001 442.703664
-63.163065599999996 15.8093928 443.600136
-63.487605599999995 14.916232800000001 443.03133599999995
-63.138182400000005 17.0606376 444.24252
-64.15838640000001 16.3627488 444.199248
-64.27566 15.3301392 443.60467200000005
-65.447712 14.6372976 443.882232
-64.9322928 15.73308 444.25468800000004
-64.376784 14.217552 442.987632
-67.7831832 20.6534448 448.396776
-69.13360800000001 19.8894384 448.324488
-58.9851936 15.6339288 441.863856
-58.084480799999994 15.3818424 440.75987999999995
-57.71664 16.434359999999998 439.687944
-61.3759248 20.2819896 445.02933600000006
-58.4379216 24.2148816 445.27788
-59.2885152 23.2421832 445.528296
-64.3498344 20.3833728 446.36997599999995
-72.51192 21.2684472 451.57888800000006
-70.8362928 21.5366544 450.310104
-60.352308 22.3429968 445.55947199999997
-64.6641936 19.3545792 445.831704
-61.50063599999999 21.5562528 445.429584
-66.8330064 24.060275999999998 449.072784
-62.7668064 22.068540000000002 446.070888
-63.6735744 21.1966848 446.18911199999997
-73.559448 20.9526192 452.578896
-73.578312 24.157389600000002 454.023576
-74.668968 23.1601032 454.319496
-73.544904 22.3948656 453.23769599999997
-74.058048 25.1888904 454.84992
-70.142364 20.4418224 449.043408
-69.20272800000001 21.3634656 449.36186399999997
-67.96044719999999 19.086883200000003 447.529536
-66.4456824 20.9054016 447.862176
-65.6266248 21.3779952 447.45264
-65.4416784 20.2296888 446.92401600000005
-64.7202528 21.346797600000002 446.91465600000004
-65.2558392 22.3243776 447.59556
-64.0134432 22.4974152 446.99990399999996
-64.9710288 23.5264464 447.78765599999997
-63.917870400000005 23.820897600000002 447.474744
-64.6521336 24.6533616 448.08746400000007
-66.7938168 25.2446328 449.42464799999993
-67.4459784 24.7331592 449.747856
-66.11134320000001 26.0074944 449.17092
-67.0533408 26.386639199999998 449.85247200000003
-62.9178336 23.2745112 446.807592
-63.0841248 24.3792648 447.29841600000003
-65.1693312 25.74216 448.563024
-64.1977416 25.6575096 448.091496
-64.8079416 29.2686336 449.84030399999995
-66.2875344 28.6604424 450.361152
-59.9901408 27.97272 447.902424
-60.023664000000004 26.992188 447.357672
-62.3947032 25.0158168 447.279624
-63.2044224 25.4127312 447.706296
-63.423216 26.649972 448.07457600000004
-57.888237600000004 26.0480232 446.580288
-57.4846776 20.8785888 441.770184
-57.705746399999995 19.7632224 442.41472799999997
-57.9562272 18.5561712 442.07625599999994
-58.27726079999999 23.0284728 444.50553600000006
-57.380004 22.8036168 443.316024
-57.3750504 24.093741599999998 444.29400000000004
-55.63638 23.665788 436.317048
-55.723046399999994 25.065957599999997 437.56293600000004
-58.6691208 13.4080416 440.51450400000004
-58.82076 14.4634968 441.160272
-56.8228536 1.70306136 432.99503999999996
-58.402296 9.364464 438.20315999999997
-57.0480048 8.2553544 437.11956
-57.5661528 17.9106264 440.28633599999995
-58.290285600000004 16.9111296 441.60336
-55.9912608 22.761878399999997 437.10948
-57.313245599999995 19.544090399999998 440.63748000000004
-56.90620800000001 21.136176000000003 440.10907199999997
-55.0244016 20.3142024 432.13384800000006
-55.553637599999995 19.6546968 433.619064
-55.8795744 23.979096000000002 437.466888
-56.6847936 22.4004024 439.67512800000003
-56.651997599999994 23.6894904 440.015688
-56.4066072 21.587133599999998 438.228
-59.351507999999995 10.130724 439.52637599999997
-55.981137600000004 21.4178328 436.25887200000005
-56.999556 18.5637456 438.91135199999997
-55.7882496 20.5999776 434.82708
-55.5520608 21.979908 434.93457600000005
-55.9361664 19.2329568 434.910672
-56.3400216 20.1883608 437.10141600000003
-56.552320800000004 18.910368000000002 437.48654400000004
-56.2390128 19.0625976 436.164264
-56.8505376 17.612215199999998 437.551488
-55.1329344 22.6840896 433.93449599999997
-54.699775200000005 23.4709056 433.000368
-54.46006559999999 26.4542832 433.272312
-54.258782399999994 24.142168799999997 432.15912000000003
-54.5900976 24.935724 433.257984
-55.0348704 24.15348 434.321712
-55.3236264 24.545404799999996 435.651048
-56.163384 17.955180000000002 435.30969600000003
-55.199988000000005 17.631352800000002 431.044704
-55.461996 18.6022296 432.35064
-57.779308799999995 13.8425544 439.07500799999997
-57.411108 13.7913336 437.597568
-57.134959200000004 15.961680000000001 437.726664
-57.7184616 14.947725600000002 439.139088
-55.3268808 16.4698848 431.105976
-55.7466912 16.9004376 432.52185599999996
-56.16396 16.6101696 434.38788
-55.934208000000005 15.2245944 433.15632
-55.978012799999995 13.252536000000001 433.335384
-55.4574816 14.2337016 431.51688
-56.597832 16.815744 436.112352
-63.0601848 10.6635096 441.045144
-64.1967336 11.090807999999999 441.631224
-63.9942552 9.7990848 440.98164
-60.433660800000006 0.578451168 432.151344
-64.5801552 8.6513112 440.640864
-63.444441600000005 8.8165872 440.45136
-67.136112 8.344296 441.711072
-67.6461888 5.70010824 440.79285600000003
-66.89435759999999 6.97057272 440.89538400000004
-60.4091376 1.991412 437.23512
-61.0043112 0.647408664 437.63522400000005
-60.2432208 1.00672632 436.562064
-62.3967264 8.9831448 440.30916
-59.856278399999994 15.682212 442.56456000000003
-60.4208808 16.2088848 443.168712
-60.811941600000004 15.253848 442.70618399999995
-59.5594512 3.0001752 436.277808
-60.8796 11.528971199999999 441.01879199999996
-60.8750136 10.3668048 440.41204799999997
-59.185353600000006 12.4282872 440.682768
-61.269285599999996 3.98334744 438.62551199999996
-60.41905919999999 3.3839150399999998 437.566824
-59.4164952 4.377556080000001 436.732272
-59.121439200000005 5.732731439999999 437.275008
-58.22465759999999 4.829646240000001 437.04432
-59.5926072 6.35488416 438.346656
-58.2248448 3.51575424 436.522248
-57.2569128 4.62139704 435.967056
-59.9941872 4.9251362400000005 438.036048
-65.1125448 2.10648456 439.413624
-64.1607552 1.4817175200000001 439.27603200000004
-58.309452 2.05788888 435.92616000000004
-70.4686104 0.111001104 431.600544
-74.443824 -0.504055872 433.493712
-72.620136 0.12052094399999999 431.883216
-68.531004 -0.37417536 432.134856
-66.6449064 6.006749760000001 440.18546399999997
-65.8003104 8.021541599999999 440.790552
-62.15256 10.048341599999999 440.610984
-61.468703999999995 9.3184416 440.225496
-60.4678752 9.0376704 439.634664
-68.0400648 4.353333119999999 440.380584
-65.7785952 5.38557696 439.561152
-70.235316 1.5173712 441.87991200000005
-68.1758136 1.9620532800000001 440.503704
-62.7014232 6.2519616 439.462224
-62.7225696 7.7239944 439.902072
-63.7285752 6.871380480000001 439.794288
-64.0574208 12.788604 442.308168
-61.5250656 6.81200208 439.427376
-61.4860128 8.266622400000001 439.714944
-64.6303104 5.16938256 439.37330399999996
-64.7221032 6.22230552 439.703424
-64.7445096 7.4239848 440.18539200000004
-61.5759192 12.3977088 441.46692
-61.914254400000004 11.159949600000001 441.0486
-64.70099280000001 3.26913696 439.16284799999994
-61.5394296 -1.03522608 437.25996000000004
-62.272216799999995 0.08726795999999999 438.227784
-63.1504944 0.88220736 438.84612
-62.6603184 2.52036792 438.908112
-61.853104800000004 5.33213208 439.0884
-62.620934399999996 4.00841208 439.093872
-62.899632 5.09621544 439.25126400000005
-54.113796 31.247222400000002 435.799512
-54.9987552 30.9642552 437.94648
-55.2325896 30.0434976 438.322176
-60.2271432 29.2082472 448.447896
-59.39874 30.3145776 448.52184
-55.963267200000004 25.517152799999998 438.53148
-55.651154399999996 26.145806399999998 437.59195200000005
-68.05626480000001 31.778740799999998 453.589992
-61.0794216 33.8774112 451.231992
-60.6122784 32.612025599999996 450.27360000000004
-64.23425280000001 30.559348800000002 450.556848
-62.793828000000005 32.0334408 450.99712800000003
-63.7202232 38.6511912 454.116168
-62.4152016 37.8476352 453.36938399999997
-64.8997416 31.609008 451.49882399999996
-65.73843360000001 30.2547168 451.01620799999995
-65.52473760000001 26.7540264 448.97047200000003
-60.7023432 26.0902008 447.28437599999995
-61.367169600000004 25.055906399999998 446.946552
-61.7953824 31.622234399999996 450.441792
-60.593846400000004 30.3163776 449.117928
-59.8813344 31.488487199999998 449.30124
-67.9735656 26.4024864 450.736056
-62.3253456 27.5167656 448.341696
-61.0912728 27.1704672 447.83344800000003
-68.2300008 24.9931368 450.49082400000003
-63.7440984 28.11546 448.907328
-65.2474584 27.843681600000004 449.298144
-69.483168 26.045323200000002 451.832904
-66.9879576 29.6317656 451.540152
-66.6935208 30.629908800000003 451.87898400000006
-67.4020368 28.5599088 451.236168
-68.06609279999999 29.147392800000002 452.32761600000003
-66.8947248 31.5133056 452.591856
-70.475652 35.2232136 456.977736
-71.7694704 35.6158152 458.047728
-69.4134288 28.3489632 453.14611199999996
-68.9007312 30.261448799999997 453.61281599999995
-69.62892480000001 31.963752 454.793544
-71.34571439999999 27.134841599999998 454.06555199999997
-72.54799200000001 28.769644800000002 455.855832
-72.937944 25.708507199999996 454.32950400000004
-73.790712 29.3790888 457.104456
-71.79351840000001 36.982029600000004 458.355168
-65.2837104 34.4380464 452.85364799999996
-70.7202576 36.5418072 457.548336
-73.061496 32.7194424 457.87557599999997
-72.73728 30.7183176 456.947712
-71.3295864 32.206183200000005 456.30878400000006
-70.10313839999999 33.7383648 455.97189599999996
-61.637868 34.7122224 451.87379999999996
-63.410616000000005 35.977644 452.89756800000004
-60.568776 35.2192176 451.561752
-61.892496 32.8141584 451.02290400000004
-66.2894856 38.101838400000005 455.19026399999996
-65.0951568 36.8502984 453.79418400000003
-59.3168328 35.805636 451.00836000000004
-70.44719760000001 39.9429792 458.54272799999995
-60.695992800000006 37.5913368 478.313712
-60.72245279999999 37.070373599999996 479.101896
-70.4724192 36.9513072 479.301408
-69.2254656 37.2638232 478.735848
-65.510748 37.07496 479.209464
-65.3951016 37.6816608 478.111968
-68.0849496 39.790029600000004 457.13196
-61.795367999999996 36.9154728 479.697408
-61.263108 37.754719200000004 477.59630400000003
-63.9635472 37.217412 453.58912799999996
-64.6922016 37.8653472 454.058064
-69.765804 37.380744 457.218216
-63.3763368 39.6124056 474.044616
-63.9975528 39.996626400000004 473.42196
-61.240168800000006 39.5256672 473.432976
-60.314500800000005 39.9402216 472.126104
-67.3536744 38.9175408 456.03108000000003
-63.002268 41.154011999999994 454.81895999999995
-62.477308799999996 39.9677328 454.06540800000005
-70.0619184 38.694384 457.823736
-68.701104 38.3786064 456.80644799999993
-71.75851200000001 40.3829136 459.407664
-65.0419416 38.8977696 454.787352
-54.8939232 41.7951144 442.478664
-59.4953208 37.9957464 452.088144
-58.8084048 37.1436336 451.205352
-60.769303199999996 37.8014688 452.757816
-59.8802112 39.0468168 452.862576
-66.1300704 39.5166744 455.66711999999995
-65.1716208 41.5814904 456.208704
-63.9283752 40.1854536 454.64817600000003
-63.9740664 41.648112000000005 455.58374399999997
-62.0173224 41.5951416 454.53146399999997
-62.8128504 42.433164 455.21445600000004
-59.318899200000004 41.3708832 469.101312
-64.44313199999999 41.4567072 469.378296
-65.226276 40.635871200000004 471.188952
-65.420028 41.0243904 470.085048
-64.2593232 40.933130399999996 470.49271200000004
-54.5460912 38.67966 440.168616
-55.092470399999996 39.2526792 441.517464
-56.2771152 41.2678656 446.936544
-56.733271200000004 40.2903288 452.093112
-55.4189256 39.6066096 442.72332
-53.5503024 41.6179872 438.43672799999996
-55.8491472 28.145988 439.64315999999997
-54.6094152 40.3753464 440.65130400000004
-53.8977528 40.132555200000006 439.317144
-54.1064808 38.6368992 438.60837599999996
-56.468087999999995 39.511116 448.770312
-56.830888800000004 38.560917599999996 447.87456000000003
-51.162588 37.8716976 430.150248
-52.8219432 44.0004744 438.18775200000005
-56.5403328 38.868955199999995 450.48024
-55.924495199999996 42.0992424 445.75754400000005
-53.1586224 41.2264512 437.079456
-53.0417088 39.867732000000004 436.479912
-53.8427088 49.503492 443.224296
-53.368992 41.7427848 467.936424
-58.0675608 40.1710464 471.21105600000004
-56.5172136 39.8402856 472.903128
-58.925109600000006 37.720943999999996 477.799128
-59.2306776 38.237148 476.83137600000003
-56.947269600000006 37.6886952 447.156288
-56.7871272 37.5983928 477.49831199999994
-57.9979656 37.9689336 477.03852
-56.9023272 37.052654399999994 478.986552
-56.801059200000005 37.412604 449.74224000000004
-57.093984 36.0868752 450.432072
-57.282911999999996 37.377720000000004 451.11247199999997
-56.8725984 37.5443064 448.355088
-56.915467199999995 36.4999104 448.809192
-56.7026208 30.275892 443.95596
-56.791605600000004 31.455108000000003 444.659256
-56.9729376 30.3981624 445.495896
-57.0022128 33.1124328 448.287192
-57.1124376 33.87888 449.568432
-56.991103200000005 35.2783224 449.127792
-56.9904048 24.41754 441.96962399999995
-56.7699336 27.726645599999998 442.77264
-56.9195784 25.9567992 443.717928
-56.882901600000004 35.8493832 447.661296
-55.405058399999994 38.3953968 442.500192
-55.022796 36.2087064 439.199064
-54.9726048 37.0992384 440.31492000000003
-55.074996000000006 37.7761248 441.485856
-56.1537 35.6926464 443.61972000000003
-56.8219104 35.288064 446.27191200000004
-56.887668 36.6816024 446.53068
-56.9809512 32.0324112 447.553872
-56.9860416 30.3529896 447.39539999999994
-56.942222400000006 33.5095488 446.371488
-56.4470424 29.6035488 442.00382399999995
-56.402387999999995 28.3890888 441.480096
-56.931991200000006 29.170404 446.505264
-56.6022096 29.6439552 442.964448
-56.4683616 30.6212832 442.73512800000003
-56.7964296 28.882108799999997 443.54627999999997
-52.835551200000005 34.535196 433.577088
-52.88981759999999 36.0503784 434.57450400000005
-55.2593592 31.9216536 438.66864
-55.9679616 26.5417272 439.051896
-56.3634504 25.2196128 439.892064
-55.5518304 32.6934936 439.340832
-55.46931839999999 27.513561600000003 437.558904
-53.556415199999996 32.106816 435.171384
-54.911073599999995 29.973506399999998 437.23764000000006
-54.4850208 29.273803200000003 434.919024
-54.4560408 31.07196 436.85719199999994
-55.3063464 26.520343200000003 436.482792
-52.976743199999994 32.6845224 432.668736
-54.4606848 28.419732000000003 434.23401600000005
-54.7915392 28.245729600000004 435.145104
-54.7202088 27.382744799999998 434.446632
-53.262338400000004 30.7438416 433.063944
-53.519363999999996 32.0957928 433.56837600000006
-53.209612799999995 29.8310832 432.10987200000005
-53.8290936 38.332353600000005 437.005368
-54.329824800000004 36.6932664 436.83033600000005
-56.776716 4.15758096 433.075464
-56.01089520000001 2.88301248 430.944264
-53.1450792 33.2945424 434.482128
-53.9007552 32.1565104 436.49035200000003
-56.663899199999996 6.8148108 434.11665600000003
-54.8036928 35.8491384 437.824728
-54.4251456 35.503718400000004 436.85964
-52.640927999999995 30.729686400000002 432.043776
-53.4452688 28.5215328 432.172368
-52.7121288 29.1411144 431.11677599999996
-53.811597600000006 27.128224799999998 431.983296
-39.8297664 38.7355392 474.229944
-39.665908800000004 39.3529824 473.254344
-51.81711120000001 37.5814152 476.674488
-50.9329872 38.3446152 474.765552
-44.633628 41.5103256 467.978184
-35.887730399999995 40.8231648 469.86883200000005
-35.6238216 41.2801128 468.49644
-42.6309408 40.2198768 470.911392
-40.0524408 40.4519112 470.93976
-38.7820872 40.0760928 471.31228799999997
-40.9139424 38.9346624 473.66063999999994
-58.060468799999995 14.201172000000001 440.14298399999996
-52.4484072 30.299407199999997 431.02216799999997
-52.690975200000004 33.652000799999996 432.37742399999996
-52.3713816 32.6214072 431.627832
-52.1528472 35.9479224 433.06905600000005
-51.9549912 37.328788800000005 432.42767999999995
-40.395664800000006 37.9386072 476.15112000000005
-40.636648799999996 38.3017752 474.88406399999997
-38.4711984 38.7902232 474.09451199999995
-57.6353376 0.99963504 434.752272
-38.2504968 37.892124 475.68636
-39.3476256 37.7141328 476.593704
-42.5509416 38.0694312 475.3584
-41.4797688 38.0647728 475.791408
-45.8451792 37.075780800000004 479.24935200000004
-46.6719984 37.2303792 478.746864
-45.9416664 37.3367232 478.223568
-60.4386792 20.1424248 517.163616
-56.7119808 20.0023056 517.133088
-58.0003632 19.7891352 518.325552
-45.811692 31.331570399999997 491.00673600000005
-52.6096224 31.5201888 490.693176
-51.733389599999995 31.8341736 489.810456
-43.9337304 31.9346568 489.30631200000005
-45.1542528 32.659596 487.357776
-51.0594768 32.531407200000004 488.469456
-45.714880799999996 33.3978912 486.19843199999997
-48.432765599999996 32.9555952 487.61294399999997
-49.8988728 33.1811568 487.156392
-52.3536768 32.679936 487.55548799999997
-51.2606376 32.7668112 486.998424
-48.127283999999996 33.7376664 485.638704
-46.844553600000005 32.7572784 487.406952
-53.48623679999999 33.0985656 486.925416
-54.6997608 33.4448136 486.344016
-48.364272 35.3644056 481.940352
-46.963454399999996 36.483012 480.65832
-46.916611200000006 35.6864256 481.8114
-44.748417599999996 34.0079688 485.080272
-42.187485599999995 33.802488000000004 485.51796
-43.775604 32.9602968 487.2762
-44.2955664 33.3616968 486.210816
-43.3027152 33.9462288 485.209584
-40.5640224 35.8182504 480.488328
-50.9590368 36.0587952 479.366856
-52.0965576 35.427528 481.228992
-46.0596384 36.106272 481.13935200000003
-49.749012 35.3516616 481.97764800000004
-41.9134392 34.144524 484.225776
-42.9823152 33.4542888 486.30686399999996
-51.091502399999996 35.2266912 481.678704
-50.231505600000006 35.65188 480.739896
-52.4046456 34.988112 482.479776
-49.0562568 35.010633600000006 483.146928
-53.425432799999996 33.6658752 485.784288
-55.8928224 32.8921704 488.049336
-60.668157599999994 33.745744800000004 486.61869600000006
-59.414896799999994 33.1842168 488.081304
-55.3262328 35.326152 483.358896
-55.8066672 35.0782992 484.35242400000004
-56.411352 35.2107576 483.192648
-68.5248984 34.857468000000004 484.715592
-67.4757576 34.8703488 485.159472
-72.249984 35.42022 483.220008
-52.271985599999994 36.1082232 480.236832
-55.7824176 36.5609736 479.75148
-64.286748 37.02402 479.93580000000003
-55.76860799999999 33.9847272 486.11952
-56.4281784 34.6756176 485.43595200000004
-54.7470792 32.4652464 488.639448
-53.592652799999996 32.5387152 488.029032
-69.72973920000001 33.040116 488.67681600000003
-66.6461592 32.054184 491.61506399999996
-64.2417624 32.003028 492.151248
-69.3300744 32.2198272 490.969584
-67.830408 32.257728 490.604328
-70.55488799999999 32.619571199999996 489.984624
-57.0150864 32.817657600000004 488.736432
-54.731548800000006 32.89374 487.41876
-66.3926616 32.5036944 490.348296
-68.1643656 31.7611584 492.002424
-71.01745199999999 28.5924456 498.643704
