# .PCD v0.7 - Point Cloud Data file format
VERSION 0.7
FIELDS x y z
SIZE 4 4 4
TYPE F F F
COUNT 1 1 1
WIDTH 1217
HEIGHT 1
VIEWPOINT 0 0 0 1 0 0 0
POINTS 1217
DATA ascii
91.208448 14.370335999999998 474.43528799999996
90.890136 13.3129368 474.88406399999997
91.568376 9.0795816 471.95964000000004
92.109312 9.379908 469.47412800000006
91.75910400000001 8.5168152 469.671048
92.69819999999999 12.8816208 472.73515199999997
93.29688 14.105735999999998 468.739944
93.03696 10.753156800000001 470.008152
93.45492 12.8179008 468.951912
93.385368 11.5117416 469.071144
93.071736 10.789142400000001 468.041976
93.49682399999999 15.857532 467.847216
90.582336 18.2870064 473.964624
88.715664 16.4302632 480.727872
92.83377599999999 14.2506 470.9358
91.43892 16.2450504 481.76337600000005
90.525888 15.335388 484.393968
91.866384 15.755248799999999 484.19244
91.16935199999999 14.9430672 485.200728
95.52758399999999 15.493521600000001 486.064152
92.819952 18.7549416 477.09828
93.190608 16.999156799999998 481.7736
92.344896 16.4784888 481.84279200000003
94.07973600000001 17.239557599999998 482.148504
92.20356 20.963433600000002 473.501448
66.6735048 12.6281808 487.25611200000003
92.765376 17.5927608 478.764072
60.80374080000001 14.8434768 478.46512800000005
60.3893232 15.5681856 478.767456
85.368888 14.7145896 479.53368
87.69074400000001 15.6506832 477.947664
89.594136 17.3199024 476.759808
58.8348072 16.4949336 476.579592
57.5653536 17.250760800000002 475.329888
94.40683200000001 21.5753184 472.5792
94.00406399999999 19.358352 477.37742399999996
95.10983999999999 22.9376736 469.96992
92.26008 22.5463464 471.15864000000005
93.82679999999999 23.10444 470.14207200000004
93.030768 23.348980800000003 469.042128
91.60365599999999 19.243173600000002 475.72099199999997
93.311424 21.026246399999998 474.075072
92.18541599999999 21.1937544 468.582624
92.07115200000001 20.3212584 469.14444000000003
91.604016 20.312748 474.13872
91.23876000000001 19.9862064 473.14332
91.75896 19.995012 474.903144
92.46268799999999 20.0323512 475.498008
94.26924 20.9076408 474.656184
97.28776799999999 15.2662032 486.081648
96.41476800000001 15.489432 486.16293599999995
95.793624 14.9589576 486.859752
93.63923999999999 14.2333704 488.221848
91.347912 14.3243712 486.227736
89.58312000000001 14.069455200000002 485.915328
90.27900000000001 13.6960776 486.5688
88.534224 13.483209599999999 487.292904
88.715304 14.2722504 485.67103199999997
87.99775199999999 13.973400000000002 486.290304
91.261872 13.7276424 487.051416
89.097696 13.6874736 486.46137600000003
90.587304 13.282848 487.71432
89.583408 13.3002936 487.242
87.277824 13.84668 487.15840799999995
96.321384 10.5428808 494.742456
97.60514400000001 11.2900392 493.31555999999995
91.560168 13.6607112 487.79136
95.0022 13.802270400000001 488.645208
96.29136 14.194627200000001 487.951056
97.31815200000001 13.5821304 488.82787199999996
96.983928 12.979094400000001 489.739032
93.08793600000001 12.855362399999999 490.05604800000003
98.98833599999999 13.2592464 489.752064
87.884928 12.912768 490.54535999999996
83.575368 9.655416 494.9622
82.927368 12.905496000000001 489.34987200000006
84.90492 13.059144 489.75112800000005
89.393976 13.260743999999999 488.416248
89.9802 12.273731999999999 491.13899999999995
90.509976 13.2242688 488.80044000000004
91.241136 13.4732376 488.489328
96.113016 13.3540056 489.219768
93.23935200000001 13.593852 489.287376
97.962984 13.089376799999998 489.717792
95.084352 12.226910400000001 491.026752
91.41163200000001 11.424592800000001 492.16211999999996
92.93839200000001 12.199759199999999 490.98254399999996
88.85584800000001 12.6088704 490.803336
91.82592000000001 11.9902896 491.24534400000005
90.22759200000002 11.654423999999999 492.112944
90.86652 11.870856 491.412456
96.468984 11.4842016 492.710904
95.247864 11.6511912 492.24520799999993
94.94179199999999 10.2653136 495.113904
95.54184000000001 11.2533264 493.20014399999997
86.61131999999999 11.84742 492.68793600000004
92.16813599999999 10.9093824 493.36307999999997
92.63613600000001 10.1500848 495.760536
94.034736 11.206944 493.058232
91.15632 10.7105472 494.067672
93.82716 10.0381392 495.821736
96.158088 10.025618399999999 495.899208
94.089312 9.476315999999999 496.90512
95.003352 9.7263216 496.307736
91.879992 10.3572936 494.797176
90.7614 11.168337600000001 493.10906400000005
87.41498399999999 4.28896224 480.651192
87.019344 6.33811896 479.54952
85.52296799999999 11.9878128 492.261192
87.70464 12.324708000000001 491.60858400000006
85.519008 11.1400272 493.20626400000003
85.632192 9.264096 495.389304
86.322312 12.2614056 491.43830399999996
89.453304 11.4710184 493.036992
89.041032 12.0679704 491.9724
79.688232 11.2014432 490.00399200000004
80.04081599999999 11.5169256 487.56528000000003
61.0653384 13.742366399999998 484.84332
67.7638008 9.574452 493.679736
70.8909048 0.317350512 489.40632
53.949038400000006 12.153729600000002 486.842832
58.193748 11.6873784 488.39004
66.59110079999999 10.7585856 488.180592
67.5919008 9.3455208 490.771656
67.3548048 10.633082400000001 490.603896
62.9201304 10.7959104 491.33887200000004
66.5921304 12.1076208 488.07468
67.050684 10.6847208 491.47488
63.9567936 8.769528000000001 486.530928
59.5903824 12.1908384 487.29945599999996
65.1734712 12.546201600000002 487.24956000000003
59.7854376 12.5858952 486.17827199999994
64.3312512 11.5309872 489.893256
65.31994080000001 11.6516736 489.311136
62.688823199999995 10.1304648 491.97535200000004
63.695736 10.332396 492.03216000000003
64.98215280000001 10.3577976 492.07161599999995
64.629576 9.777931200000001 486.66888
68.1251832 9.0657288 491.57647199999997
68.4302616 8.4428424 492.13000800000003
65.6035416 9.5393952 487.599624
65.7755424 10.9733184 491.361192
80.62243199999999 10.634616 491.946912
84.292704 11.3569344 492.16881599999994
82.71835200000001 10.717559999999999 492.734592
54.459936000000006 7.5361464 495.593712
84.14964 10.3827888 493.755624
82.650312 10.0460232 494.20547999999997
84.325536 9.1673568 495.671904
81.60782400000001 10.1785104 493.519104
79.625088 9.6070176 494.192088
79.84332 9.9833184 493.36430399999995
84.662856 9.6482016 494.76311999999996
65.5550928 7.928388 496.69171199999994
79.490232 9.3181968 495.064368
78.642864 9.309671999999999 494.552304
64.2316248 9.7086096 492.96585600000003
61.885792800000004 7.14651408 496.356912
69.5227752 8.7680016 493.908264
62.552808 8.4020832 494.433504
62.0945568 9.733183200000001 492.565248
70.1550648 3.99789648 497.94566399999997
78.760512 9.6883128 493.27430400000003
68.75325360000001 9.5050224 493.272504
67.74837120000001 8.1190008 496.743768
79.082928 7.9521983999999994 491.89377599999995
78.579144 8.6307264 492.70550399999996
78.08256 8.7825384 494.027712
80.681544 2.97400464 490.76568
80.134416 1.93250664 490.750344
69.62629679999999 6.99912144 494.766288
69.7614264 7.9857432 494.48844
66.590676 12.000060000000001 487.331208
77.955624 8.7154272 495.214416
68.5148112 9.4082472 492.27134400000006
68.9517216 8.5951944 492.96924
47.5022304 6.69859272 495.601992
48.58405200000001 7.741008 494.03116800000004
66.4109856 2.7407296800000003 492.477192
65.50620479999999 12.006086400000001 488.096712
65.473776 4.7157804 490.237704
63.445968 6.530901119999999 487.27130400000004
64.38365999999999 7.04044008 488.03904
66.6131256 9.2190024 494.09827199999995
69.2413416 7.6589064 493.76037599999995
63.0862848 9.8278128 492.59692799999993
54.7397784 8.82738 492.3396
63.8094816 13.167791999999999 486.66492
63.6979752 9.6372432 485.837856
56.55911760000001 11.860869600000001 488.00289599999996
74.82117600000001 0.9001612800000001 495.33696000000003
63.2457648 5.56138296 486.96516
68.2578 4.25701584 494.673048
68.3285472 3.10708368 494.684208
70.222284 0.055664064000000006 486.580032
67.0236264 6.154226639999999 492.063192
67.00068 5.0613444 492.950448
67.41252 4.65225912 493.84454400000004
69.1073424 3.73208544 495.474624
69.2223984 2.62453176 495.12866399999996
64.450116 5.50690128 489.347208
61.5595104 9.2380536 493.242408
62.754069599999994 9.2311344 493.418664
61.7006376 8.7160248 493.870536
68.246028 5.286941280000001 494.269488
68.7495888 6.36745176 494.014248
68.2618104 7.2526032 492.791544
19.3212432 5.313939120000001 493.363656
24.834967199999998 7.2195552 492.09091199999995
20.4225048 5.4805608 493.64856
20.071490400000002 5.95396872 492.67756799999995
37.736316 6.4914228 494.64453599999996
36.27324 7.2414144 492.82279200000005
60.861959999999996 9.6377472 492.55891199999996
45.52254 8.953279199999999 491.47538399999996
45.1554624 8.2480104 492.629976
43.6486032 7.984382399999999 492.980328
42.7965192 7.5085416 493.80393599999996
42.1135704 7.05332736 494.514432
40.0499928 7.607311200000001 492.797952
42.1871112 7.7983272 492.954336
42.7012128 8.2664424 491.974056
41.034794399999996 7.5425904 493.20741599999997
39.778999199999994 8.099748 491.919408
49.4329968 8.5287024 492.930288
32.068656 4.66508376 496.330272
27.9272016 7.03366632 491.68785599999995
38.987856 8.7711264 490.281552
29.965291200000003 5.81247936 494.554896
38.217024 6.9854148 493.59945600000003
51.9887232 8.765719200000001 492.362928
54.077738399999994 8.3223144 493.39252799999997
30.0369528 8.411868 489.443472
30.649917600000002 8.9785656 488.562048
32.2842456 8.7370776 489.74637599999994
22.1046192 5.47694424 494.45423999999997
57.782484000000004 9.474710400000001 491.90292000000005
53.3368656 8.6892696 492.405624
58.1607576 9.1986264 492.636168
41.178232799999996 8.1127728 492.143544
41.793343199999995 7.4300976 493.737552
46.5139224 8.5197456 492.354072
53.8317936 9.13338 491.574312
46.331424 7.8666624 493.52364000000006
50.0345856 9.2443176 491.16693599999996
24.296472 7.8477552 490.977216
22.8191112 8.2277568 489.47680799999995
23.680598399999997 8.205220800000001 490.07952
22.6913256 7.9256448 490.93992000000003
21.356064 7.3536551999999995 491.05195199999997
21.7120032 7.8813936 489.89556000000005
26.6074416 8.8993584 488.050992
23.996224799999997 8.4719952 489.053952
20.9503296 8.6887512 487.906056
19.9570608 8.2539576 488.67587999999995
20.8931472 8.0285472 489.12645599999996
20.3283072 6.94722384 491.05562399999997
19.763121599999998 6.380467919999999 491.80802400000005
52.664364 8.3343456 493.65165600000006
33.5094192 6.744836879999999 493.07853600000004
27.6152832 6.32632104 493.51291200000003
27.790149600000003 5.954332320000001 494.630208
31.6531944 5.968882079999999 494.180856
50.48806319999999 6.36156936 496.59040799999997
48.750263999999994 6.953946480000001 495.400176
37.390392 5.26948416 496.69408799999997
50.532192 8.732462400000001 492.305616
30.0647376 5.46214392 495.368064
44.8518816 7.5876048 493.64964
46.933005599999994 7.252704 494.581752
54.88926480000001 8.005355999999999 494.29173599999996
56.0629944 8.792748 492.85224000000005
45.6823296 7.12337616 494.47187999999994
57.779424000000006 7.5673944 495.633744
56.23117920000001 8.1829728 493.929504
45.1778616 6.6803832 495.408672
64.1945016 4.58034696 488.488608
78.129288 8.562729599999999 496.149264
59.6224944 7.3354176 496.053504
57.4927128 6.64224048 497.21551200000005
46.27299599999999 6.734139839999999 495.386928
47.4853392 6.01048872 496.79603999999995
26.8520688 5.767896240000001 495.224136
56.663395200000004 7.465535999999999 495.922176
47.67514559999999 7.7759208 493.854912
52.04957759999999 7.3375416 495.434664
50.2155648 8.2126152 493.307928
53.654090399999994 7.977218399999999 494.57253599999996
51.248498399999995 8.2528416 493.379784
57.478687199999996 8.2326456 494.097912
53.16557039999999 7.4853 495.601056
52.6538664 7.8425784 494.769816
57.0150864 7.869088799999999 494.88904799999995
46.8797112 9.1672128 491.48524799999996
57.266496000000004 8.7385176 493.299792
41.3689176 9.2125296 490.1094
57.083076000000005 9.522619200000001 491.63277600000004
31.156977599999998 8.446039200000001 489.81081600000005
32.889002399999995 8.3003688 490.404096
48.9704472 9.3626784 491.270904
49.3384608 9.0010944 492.052752
55.4746248 10.787040000000001 489.54333599999995
57.0556872 9.2177424 492.38553600000006
59.4682344 9.400636800000001 492.66691199999997
59.8477464 10.695744000000001 490.126896
46.5042816 10.872432 487.09504799999996
55.715759999999996 9.8447184 490.93898399999995
46.3394448 10.5238728 488.05812000000003
45.3495024 10.459065599999999 488.44065600000005
48.00672719999999 10.7326296 488.50581600000004
47.0912904 10.3339224 488.73816000000005
47.9818728 10.2507696 489.54643200000004
50.4500904 9.857678400000001 490.024944
54.971978400000005 10.1617776 490.401936
47.3625936 9.7188696 490.62643199999997
45.3734064 9.9795528 489.360096
62.406611999999996 11.4854328 489.643848
51.15438 11.737944 487.31486400000006
49.94532 11.309976 487.779048
49.2793416 10.148868 489.716496
49.461465600000004 9.616284 490.51476
48.5138088 9.7944696 490.54276799999997
52.9785936 11.2654296 488.449512
51.0613848 10.4125968 489.145536
36.6900408 11.098879199999999 485.735976
57.8088216 9.7610184 491.12179199999997
56.18943360000001 10.299729600000001 490.22049599999997
53.7946128 11.0835576 488.89792800000004
60.9805296 10.7453232 490.50360000000006
52.0714368 11.528740800000001 487.90008
56.6256888 12.1669704 487.075896
54.8349768 11.302883999999999 488.793816
48.518143200000004 11.8355832 486.54324
50.1448392 10.56546 488.923632
43.3492344 9.4495104 490.22827200000006
43.4274264 11.0635992 487.077696
53.0801928 11.8607184 487.44626400000004
51.9548184 10.806552 488.863944
51.3207576 12.224606399999999 486.246672
53.1200376 12.205555200000001 486.55368
57.1548312 11.553854399999999 488.60387999999995
56.0340288 11.4230952 488.71000799999996
57.485008799999996 11.8823544 487.651032
37.9279368 10.3811328 487.34920800000003
38.6031456 9.9687672 488.270448
38.3627376 10.9775952 486.15335999999996
41.8276872 10.2810888 488.13228
22.667932800000003 9.3383352 487.103472
39.2208048 10.6487496 487.28721600000006
22.013352 8.857792799999999 487.77501600000005
23.1220728 10.5488784 485.14845599999995
21.570336 9.3024072 486.935424
34.7268744 10.4587992 487.014552
40.7367432 10.6907184 487.36569599999996
37.844316 9.2789856 489.04552800000005
35.0513208 10.8260928 486.320832
36.9837864 10.7064 486.48384000000004
45.446940000000005 10.8109728 487.46844
81.40521600000001 11.099095199999999 484.852392
49.351428 11.7690336 486.976536
60.6641112 12.550104000000001 487.043496
57.886070399999994 11.2593312 489.278808
58.772714400000005 11.4684336 488.99664
80.70688799999999 11.8957896 489.88519199999996
76.747176 0.23380596 487.521936
55.514750400000004 11.914639200000002 487.77919199999997
60.4417392 11.9781288 488.35454400000003
58.5459936 11.9751984 487.41933600000004
59.6479392 11.353082400000002 489.15590399999996
51.0548184 11.0825568 488.32048799999995
80.755848 12.752697600000001 488.97338399999995
49.435012799999996 12.1877424 486.158184
81.877032 13.0554792 488.783664
64.500696 12.8976048 487.03752
52.223327999999995 12.0239568 486.86896800000005
80.397432 12.607293599999998 487.05897600000003
61.76478959999999 13.028364 486.629496
80.73108 12.716913599999998 485.98416
73.5714 0.640158696 486.667872
81.907128 12.3049296 489.59244
83.931552 12.986344800000001 490.261752
83.332944 14.1848424 487.2132
81.018 13.3327512 486.601776
83.886408 13.4013024 489.07044
82.99980000000001 12.103588799999999 490.31251199999997
81.891864 11.5682112 490.55839199999997
84.892248 12.5683416 491.234832
61.545355199999996 11.2544424 489.872808
58.7848824 10.9141704 489.74666399999995
38.039832000000004 3.87587808 500.122656
66.5146008 11.3292504 490.585032
60.6819024 11.282479200000001 489.51050399999997
43.928315999999995 6.569621280000001 495.728496
55.52064 7.2049176 496.26878400000004
77.65632 6.76898568 495.757152
53.3723832 6.18863832 498.014136
66.62747519999999 8.5055904 496.292256
68.8127184 7.6632191999999995 497.17591200000004
77.58972 5.94437184 496.37656799999996
77.2056 6.89680512 496.92708
61.96464 6.794383679999999 497.46038400000003
80.6652 7.7314608 497.88381599999997
69.7616136 7.01565696 497.617776
69.6457872 8.6403816 495.09288000000004
65.1340584 6.99452352 497.43864
59.2064352 6.8344488000000005 497.177856
68.7757392 8.4064176 496.399608
77.260032 7.2704376 498.003552
66.759804 7.8852024 497.199456
66.0215376 7.3798056 497.522088
58.7673648 7.5622679999999995 495.474768
77.51376 7.934507999999999 496.039032
70.05420720000001 8.1174888 495.900072
66.6036 8.8784568 495.20952000000005
65.4852528 8.787168000000001 495.76212
55.9923336 6.38869104 498.223656
57.18096 6.29921952 498.006792
40.6387512 4.13664552 499.50763199999994
57.8064456 3.61587888 503.497728
79.903296 8.9345088 495.84902400000004
67.7102472 8.726364 495.84312
83.31408 9.1845144 495.87818400000003
78.836976 8.9546112 495.5814
81.62100000000001 8.1765504 497.12904
87.107112 8.0964864 498.13984800000003
87.598152 9.7594632 495.850176
86.165496 8.7939504 496.378152
84.491856 8.3178216 497.46564000000006
85.018248 8.7400368 496.455336
85.63896 8.3692224 497.266632
79.062264 8.527968 496.562544
82.557 8.7960528 496.477512
81.23724 8.971430400000001 495.94910400000003
80.310384 8.3251584 496.81821599999995
86.44406400000001 4.49435088 477.829152
76.70052 6.1699104 498.063024
79.93951200000001 0.715402512 489.098304
86.189904 7.741310400000001 498.760704
86.66712000000001 8.486143199999999 497.2212
79.727328 7.378027199999999 498.72808799999996
78.30144 7.557912 498.486744
79.335 8.012606400000001 497.649744
80.189352 6.910618319999999 499.713336
63.8838648 6.8833188000000005 497.47787999999997
81.266544 6.9766200000000005 499.929408
65.9495232 6.62288184 498.21962399999995
83.605536 7.19332632 499.81370400000003
87.098472 7.55712 499.134168
86.33988 7.333430399999999 499.584672
82.255608 6.842129760000001 500.42807999999997
88.068744 7.470403200000001 499.450392
86.166504 8.093952 497.916288
91.84212 6.3583048799999995 503.43609599999996
82.265688 5.768848080000001 502.37078399999996
59.2423992 2.67465096 505.33884
42.6318264 -0.43469114400000003 508.57416
52.7710104 1.9841335199999999 505.096848
40.2213096 6.5389075199999995 495.047088
64.0879272 5.81771376 499.81550400000003
36.6531192 3.8187079199999996 500.08730399999996
43.2279288 2.3118760799999998 503.760816
55.6372224 3.69468648 502.669296
57.3718824 4.29529464 502.24377599999997
62.680075200000005 0.9331343999999999 509.12078399999996
68.3226648 0.451793736 511.097976
62.987068799999996 1.98497592 507.24532800000003
40.428612 0.171988992 507.99960000000004
39.7308168 -0.40950791999999997 508.82004
51.4235232 -0.552929832 508.869864
51.4318968 -0.9257759999999999 509.988384
35.46054 -0.21713212799999998 507.16238400000003
66.283344 1.1539857599999999 509.285376
58.4410176 -1.59563448 514.426176
68.2514496 0.9312062400000001 510.33024
68.6952648 7.106178239999999 497.91672
70.1536032 4.89166704 497.984328
70.2017496 4.99025016 498.976992
56.4900264 6.84782064 497.06316
45.7427448 6.403157279999999 496.041624
67.8876408 6.797812319999999 498.43576800000005
67.6033704 5.44829256 500.883984
42.1380288 5.04887256 498.024576
48.65157359999999 6.0091221599999995 496.95825600000006
62.894858400000004 6.56079912 497.746944
63.454464 6.259646160000001 498.64752
53.201469599999996 6.49374768 497.169864
60.6918744 7.11141048 497.02284000000003
57.503844 7.10458128 496.49904000000004
60.1030008 6.595293600000001 497.91693599999996
54.1132416 6.548776559999999 497.338488
53.66696400000001 6.97141944 496.489968
52.4555352 6.85107504 496.508328
55.347760799999996 5.54505192 500.01271199999996
55.6378416 5.928730560000001 499.26772800000003
24.694545599999998 5.22843768 495.83628000000004
54.5937192 6.95967696 496.604304
60.8777712 7.4739096 495.666648
58.3880544 5.08765536 500.653224
62.84412 7.026518879999999 496.881432
58.1676336 6.85346832 496.9746
54.5856696 5.80293072 499.53787200000005
66.4673256 5.2393456800000004 500.75236800000005
46.001016 5.0205787200000005 498.73428
41.3513568 6.585127920000001 495.242568
40.544942400000004 6.07415544 495.998352
51.303499200000005 6.83769168 496.08863999999994
44.1211392 5.9118552 496.93867200000005
55.219283999999995 6.683150159999999 497.315808
36.0041976 4.20170688 499.014
42.0225336 5.5012276799999995 497.202696
58.1284296 5.96110464 498.912264
73.045512 2.0666232 493.032024
58.5445392 5.48000208 499.83876000000004
59.3039664 5.33372904 500.40770399999997
44.95608 6.2498606400000005 496.34517600000004
62.2830096 6.269249520000001 498.487176
45.7547184 6.066663119999999 496.78192799999994
38.432988 5.016381839999999 497.47888800000004
42.93612 6.0295716 496.55440799999997
30.47454 3.94723584 497.768688
32.6584584 5.76832752 494.637768
66.202524 4.04866656 491.18018400000005
54.6785136 5.40391824 500.269464
48.932208 5.68410408 497.779488
51.4353456 5.283608399999999 498.987288
67.6909152 5.8005828 493.368768
49.647153599999996 6.04031616 497.18592
49.7500776 5.69316672 498.203856
61.456788 5.85422856 499.23410399999995
50.6651328 5.56366752 498.39537600000006
53.746279200000004 5.34103632 500.03136
60.2879544 6.08664312 498.85581599999995
61.7468184 5.29728912 500.220144
63.44946 5.37414336 500.35895999999997
65.5872336 4.05371304 503.61940799999996
60.032764799999995 4.8727785599999995 501.13296
64.9086912 5.5366135199999995 500.43528000000003
66.7989144 5.7433284 499.894488
63.868564799999994 3.7722477600000004 487.528416
65.093364 6.007959359999999 499.78216799999996
56.832840000000004 5.9425833599999995 499.110192
65.89494 6.190776 499.330944
65.783412 5.63709024 500.28458399999994
77.967504 4.3648459200000005 502.08055199999995
80.976024 5.80852872 502.13707200000005
87.1218 6.48609552 502.51903200000004
87.493032 5.3269696799999995 475.841232
85.82903999999999 6.35798592 502.423992
86.474088 5.88012336 503.635392
80.140032 4.3809192 505.01217599999995
85.3164 5.7055190399999995 503.491464
84.892392 4.97215512 504.446616
84.265848 5.32666224 503.489952
86.83300799999999 5.07697128 504.94960799999996
79.706808 4.76163504 504.01900800000004
79.78773600000001 5.90477904 501.684624
80.662896 6.33051864 501.166584
83.294064 6.35890104 501.427728
81.784152 6.2901172800000005 501.363072
84.544488 6.04417392 502.419096
79.751952 6.44254488 500.610888
77.04899999999999 6.95927232 499.208184
90.102456 6.31617264 502.58664
94.999248 7.18642224 502.491744
88.705656 6.78230208 501.346728
95.551344 6.479190719999999 503.79299999999995
87.827976 7.8976224 498.699936
87.16471200000001 7.07269536 500.19710399999997
88.412328 7.06591296 500.42519999999996
88.34472000000001 6.50678184 502.354656
90.918792 6.32616696 502.65993599999996
93.31992 6.00000696 504.913248
91.592928 6.80610888 502.308432
92.374272 7.2953496 502.86794399999997
90.403272 5.959188 503.573112
90.35748000000001 5.43419784 504.752616
89.22283200000001 6.145471440000001 503.101656
89.427672 6.609535920000001 501.97831199999996
97.543656 5.32442664 506.67062400000003
88.526088 4.24670544 506.55312
104.888952 6.47754264 503.89336799999995
93.79900799999999 5.0157612 506.52648000000005
94.198248 6.48356976 504.61884
98.46719999999999 6.189222239999999 503.772768
96.456096 5.4515815199999995 505.891728
97.69284 6.056900639999999 504.54367199999996
99.690192 6.852190319999999 502.237944
93.020904 7.7794631999999995 501.13008
90.517608 9.163814400000001 498.103416
96.415272 7.09411392 502.722072
97.14671999999999 7.6518576 500.899608
97.31772 8.0363664 499.993776
96.975792 8.4192912 499.13143199999996
95.072472 8.9232264 498.356136
94.54377600000001 8.684143200000001 499.137624
92.39666399999999 8.2696176 499.997952
93.838392 8.3109744 500.119416
93.181464 9.419529599999999 497.520072
89.383968 9.779594399999999 497.29269600000003
88.195176 8.425044 498.058272
95.71780799999999 9.0443808 498.01068
93.14582399999999 8.8951536 498.81859199999997
93.20724 9.7289352 496.530216
97.308216 9.547034400000001 496.81296000000003
88.643952 10.2681936 496.188144
91.00684799999999 9.7600824 497.01974399999995
92.283264 9.8440344 496.817568
95.993928 9.4310928 497.073096
98.711352 9.3769416 496.984752
111.897648 13.827852 489.86272800000006
132.97053599999998 16.3463688 487.128744
113.261112 12.5617248 492.66345600000005
119.182968 16.2397368 485.914896
112.44067199999999 14.315940000000001 488.71000799999996
100.61798399999999 14.1333768 488.529
104.566176 15.634497600000001 485.96637599999997
109.578384 14.5906344 487.952784
109.59984 15.1563528 487.037304
110.95077599999999 12.952404 491.65164
110.395584 13.2138936 491.003928
110.444256 14.280271200000001 488.37866399999996
101.160576 15.8135112 485.30512799999997
99.608832 15.1885872 486.34027199999997
100.50112800000001 15.2534736 486.34106399999996
103.545792 15.3460584 486.36648
107.63208 15.5487888 486.29145600000004
106.528032 15.4230984 486.529128
108.364824 15.89868 485.60976
117.549432 15.6904632 486.968832
114.461064 15.5298384 486.264312
115.317432 15.6357 486.205344
112.069872 15.6808872 486.369576
115.153272 15.263841600000001 487.016496
112.975056 15.820423199999999 486.01094400000005
113.667408 15.5800008 486.40276800000004
112.65940800000001 12.002896799999998 493.429392
111.96590400000001 15.0212232 487.459368
130.207176 15.6693384 488.01772800000003
138.5496 16.393787999999997 488.04084
124.83316799999999 13.3083288 493.169544
127.63159200000001 14.9845896 489.379464
102.50452800000001 14.185188 488.292768
103.89751199999999 14.071572000000002 488.441592
100.83794400000001 14.754513600000001 487.438992
101.545416 13.899376799999999 488.988936
99.886248 14.911279200000001 487.02988799999997
99.956736 12.742797600000001 491.179824
99.50040000000001 14.3756064 487.952928
98.564544 12.7653552 490.60008
99.819648 13.365734400000001 489.87259199999994
100.52611200000001 13.1621976 490.45665599999995
99.475992 12.9731256 490.52030399999995
98.511336 12.2874768 491.63939999999997
99.218664 12.6527616 491.248368
100.924776 12.637684799999999 491.41720799999996
101.38521599999999 13.4731512 489.83479200000005
103.232664 12.6107712 491.477616
103.615416 12.2495688 492.26450400000004
101.52201600000001 12.013668 492.49634399999997
98.73352799999999 11.7063648 492.831936
100.684368 10.183716 495.90151199999997
106.61364 11.149639200000001 495.124632
103.622544 11.574712799999999 494.116272
102.49300799999999 10.0404936 496.448352
101.222712 10.8884448 494.84844
99.14040000000001 8.8889616 497.96877600000005
102.603744 11.0151576 495.003672
104.062752 9.6925392 497.442312
102.26707200000001 8.8574328 499.032432
105.322536 9.3941928 498.92904000000004
98.83900799999999 8.4156264 499.08923999999996
99.767592 7.9228152000000005 500.01811200000003
97.38359999999999 10.23372 495.509256
99.83901599999999 10.6282872 494.90056799999996
88.929072 2.89791432 473.67215999999996
99.846936 12.2597064 492.11280000000005
102.010464 11.5259184 493.86333599999995
102.14596800000001 12.588372 491.48056800000006
105.64596000000002 12.7629144 491.534064
110.230344 13.924079999999998 489.23927999999995
109.306728 13.083933600000002 491.179176
106.72848 12.2847192 493.25219999999996
106.991496 12.9385944 491.177376
107.45481600000001 14.04306 489.24064799999996
106.27884 13.4602272 490.07023200000003
104.83135200000001 13.1961168 490.500288
105.35594400000001 14.3637408 487.97272799999996
109.16748 11.448259199999999 494.89689599999997
104.536512 14.8661784 487.05407999999994
110.62166400000001 14.824944 487.568376
106.496208 14.691535199999999 487.548288
105.100272 13.7353536 489.22516799999994
106.360128 14.1086016 488.6658
108.55713600000001 14.8121496 487.552248
109.640448 14.2050888 488.69359199999997
113.03135999999999 15.3830664 486.89856
108.602712 12.487456799999999 492.23771999999997
108.316368 12.170966400000001 493.328952
110.020392 12.581985600000001 492.144984
114.991344 13.363934400000002 492.2532
109.27224000000001 13.9851864 489.450312
113.87016 13.28004 491.99364
116.9712 15.2210232 487.677888
122.769864 13.554568799999998 491.95972800000004
119.101896 13.5216072 491.558688
133.821 14.005951200000002 491.82026399999995
132.46711200000001 15.4326384 488.930976
128.185416 14.0900688 490.59820799999994
130.516056 14.703876000000001 490.14849599999997
121.458816 14.2096392 490.19227200000006
118.347336 13.847760000000001 490.909968
128.560968 13.772124000000002 491.334912
118.82412 12.9293712 492.799464
120.852072 13.457591999999998 491.798016
125.99380799999999 13.6125432 491.69628
123.728832 14.456908799999999 490.138776
115.760736 13.7509344 491.46623999999997
107.594496 12.6194688 491.92019999999997
109.826136 13.5511848 490.17312
126.88682399999999 13.6403136 491.33952
127.30017600000001 14.0250528 490.61052000000007
112.828176 13.079656799999999 491.768568
110.84126400000001 13.652028 489.997584
112.39747200000001 13.552236 490.85323200000005
111.81671999999999 12.99024 491.688936
108.151272 13.067769600000002 491.19523200000003
109.29866400000002 12.179628000000001 493.25472
108.785448 13.587688799999999 490.32575999999995
111.215016 14.0292648 489.008736
111.16828799999999 12.4655688 492.446088
108.68148000000001 11.855124 494.17092
112.21682399999999 12.459866400000001 492.537888
116.147736 13.3231176 492.489504
116.16256800000001 11.6028504 494.92656
115.434648 12.718209600000002 493.27984799999996
114.29928 12.7044432 492.88622399999997
116.45935200000001 12.8660976 493.289352
127.71511199999999 13.603283999999999 491.398776
130.207248 13.5232992 492.385896
116.910864 13.660812 491.70657600000004
121.6746 12.5831016 493.50614399999995
124.29072000000001 12.927823199999999 493.900488
123.01999199999999 12.7293336 493.734456
123.94764 11.0526696 497.57284799999996
126.29822399999999 10.7853552 498.06993600000004
120.866544 11.4724512 495.94377599999996
119.10290400000001 11.584360799999999 495.248256
117.043488 12.5502624 493.690608
115.167456 11.2299912 495.194976
120.96561600000001 11.8703592 495.116856
121.006152 12.2385024 494.22887999999995
120.98772000000001 10.6404264 497.466432
113.485104 11.275840800000001 495.13413599999996
111.28392000000001 11.0871144 495.973152
108.592056 9.8290224 498.12235200000003
115.92302399999998 9.964864799999999 497.80836
112.43908800000001 11.3708736 495.385128
110.5326 9.9703368 497.461464
113.23821600000001 10.4156352 496.882368
110.454768 12.148351199999999 493.306272
114.08911199999999 10.4763168 496.55462400000005
114.60686399999999 12.155839199999999 493.64956800000004
117.11059200000001 11.9647008 494.486424
113.10588 11.6215848 494.35250399999995
113.70312 12.0411072 493.534656
117.352368 13.1212296 492.830568
118.08288 11.767341599999998 494.889264
109.78041599999999 11.8769112 494.25228
109.568736 10.058328 497.4426
115.897536 9.2935512 499.021056
107.03707200000001 9.4928112 499.183704
107.352432 9.047412 499.85373599999997
113.31698399999999 10.915063199999999 496.027584
118.210968 11.165796 496.04292
114.655608 9.511452 498.631032
117.92174399999999 12.3823872 493.771176
107.949528 9.3076992 499.189464
113.109192 9.3923712 498.8484
115.148808 8.8231752 499.91932799999995
109.836504 9.5352624 498.31819199999995
110.322504 8.996832000000001 499.300488
116.691264 9.7753248 498.58178399999997
116.11584 8.7955992 499.92559200000005
117.77284800000001 9.884138400000001 498.790512
117.10548 10.3384944 497.72015999999996
122.00529600000002 10.874527200000001 497.20932000000005
127.66665599999999 13.0361832 493.539984
129.46658399999998 12.6371664 494.478648
90.24768 0.78675624 481.018392
122.14562400000001 12.196404000000001 494.702496
123.75878399999999 12.3669432 494.986248
115.32254400000001 11.912328 494.239464
116.265816 12.276403199999999 493.98638400000004
120.24770400000001 12.6353808 493.43291999999997
111.39487199999999 11.549988 495.08251199999995
110.914848 11.7913248 494.28338399999996
111.578472 12.0299616 493.370712
120.59531999999999 8.7017976 501.16744800000004
112.0284 11.720988 494.31888
109.032192 10.8951984 495.73591200000004
106.31008800000001 9.7229304 498.623112
107.326656 9.8602344 498.369168
107.565984 12.3071256 492.838344
105.111936 11.306980799999998 494.612784
103.990608 10.7632152 495.430848
106.568064 10.103263199999999 497.72080800000003
104.778648 10.217491200000001 496.503144
107.55144000000001 10.2465288 497.288232
105.411528 9.8061408 497.68048799999997
98.676648 6.98964336 502.133832
115.79328 8.3019456 501.00112800000005
110.170296 7.8084504 502.08940800000005
121.510584 9.8200368 499.23151199999995
122.440104 10.1035008 498.76351200000005
110.130192 5.690612880000001 506.320416
113.778936 6.89601456 504.733608
107.140752 5.6281291200000005 505.639656
105.982056 5.7901291200000005 505.4346
104.01134400000001 5.2951248 506.63678400000003
106.73647199999999 6.0808370400000005 504.501264
116.854632 8.739504 500.43477599999994
110.81793599999999 6.51688848 505.09195200000005
112.630032 6.598242 505.16236799999996
110.22631200000001 6.74219952 504.293832
106.143912 7.6378824000000005 501.827472
108.657288 5.4242287199999994 506.540448
111.530664 6.98066208 504.394488
106.803576 7.2178056 502.52616
110.02975200000002 6.119665200000001 505.29722399999997
107.759736 5.972510880000001 504.763992
110.720448 7.3872431999999995 503.265528
109.23256800000001 5.75159904 505.873512
108.91497600000001 7.8952464 501.668496
111.06432000000001 8.1788184 501.31512
93.144528 -2.81719008 485.775
107.00207999999999 7.8486336 501.604776
111.903912 7.551201600000001 503.13045600000004
107.95413599999999 7.390893600000001 502.28524799999997
111.072744 8.665855200000001 500.110272
115.885656 7.476681599999999 503.58168
121.609584 9.1693512 500.35276799999997
117.879768 8.7695424 500.786136
117.59047199999999 9.2633616 499.886928
116.932896 8.144244 501.53126399999996
115.92295200000001 7.827307200000001 502.328376
115.053984 7.9938504 501.9516
111.232872 9.080071199999999 499.149288
108.321912 8.625672 500.39805600000005
112.85488799999999 8.8093944 500.05987200000004
113.913792 8.8494624 499.94834399999996
105.143904 8.8866864 499.98312
112.080168 8.028936 501.930288
118.62158399999998 9.5115528 499.85704799999996
117.000072 7.802207999999999 502.859736
109.847448 8.453872800000001 500.623128
104.155632 8.653355999999999 500.20437599999997
107.146224 8.46126 500.623992
107.885664 8.0128296 501.322968
111.195432 7.7967287999999995 502.368552
101.84860800000001 7.925061599999999 500.90025599999996
100.985832 8.3917512 499.33346400000005
102.88598400000001 7.9222896 501.152184
100.23840000000001 7.386048000000001 501.227064
102.062952 7.2522648 501.955776
100.47794400000001 6.545215440000001 502.866
101.166552 7.476458399999999 501.337368
99.101232 7.4048112 501.27616800000004
97.992864 7.3352664 501.568344
103.336848 8.8627464 499.632408
100.034136 8.6094216 498.562416
97.873272 8.3974536 499.408848
100.92996000000001 7.87338 500.468112
100.844352 7.0105615199999995 502.10481599999997
99.64720799999999 6.29892 503.308368
103.623264 7.2819720000000006 502.130736
101.471544 6.55059312 502.95923999999997
102.685824 6.6207290400000005 503.04708000000005
102.021192 6.06346992 504.150336
100.71741599999999 6.09367824 503.75102400000003
98.84563200000001 6.584564879999999 502.82121599999994
103.04784 6.038700479999999 504.994392
103.846392 6.6648636 503.363448
100.97287200000001 5.638052159999999 504.89798399999995
91.450584 -0.8695727999999999 516.59352
98.76931200000001 2.70852984 513.890424
99.34682400000001 2.92612032 512.97984
100.273536 2.9537121600000003 512.09064
101.49292799999999 3.1020012 511.35343200000005
94.91097599999999 2.91964176 509.943528
91.387152 3.1167792000000003 509.478984
94.740408 1.35674424 512.893728
94.340736 0.9270057599999999 513.9478799999999
97.87622400000001 2.05462224 513.223488
93.833352 -0.0252919728 515.96352
100.27404 2.62988928 513.070632
104.797656 3.57659352 509.88002400000005
107.04333600000001 4.2386436 508.896
99.21708 3.809268 510.23879999999997
103.95144 3.8582978399999996 509.03215200000005
100.211112 3.95307432 509.36364
102.001104 4.22749656 507.86474400000003
101.125656 4.11836976 508.54190400000005
103.14482399999999 3.58885008 509.526144
101.29298399999999 3.58856352 509.86483200000004
102.98052 3.96127872 508.39257599999996
104.981976 4.10677776 508.641768
105.04900799999999 4.90135896 507.43411199999997
103.90413600000001 3.4896823199999996 509.997528
107.341056 4.73170392 507.85596000000004
92.449296 -1.92249216 484.57764000000003
111.23978399999999 5.69232432 506.706264
109.366416 5.434701840000001 506.78747999999996
108.68637600000001 4.99784544 507.56680800000004
106.354512 5.22647424 506.82672
108.24782400000001 5.68506384 505.685376
106.14204000000001 4.43147112 508.21732799999995
99.40586400000001 5.55122952 505.520712
98.643168 5.45371704 506.12205600000004
103.82004 4.44332376 507.726
103.22279999999999 5.60180304 505.93600799999996
101.03637599999999 5.26633128 506.10535200000004
100.19843999999999 5.46983784 505.491624
98.589384 5.79354552 504.981288
102.993048 4.9563756 506.656296
92.89116 -8.146137600000001 486.654912
104.00371200000001 5.94201024 505.613232
95.16059999999999 5.6084508 506.705688
95.419152 5.26896792 508.020048
95.00328 4.293433439999999 508.177512
96.223464 5.06600496 508.315248
97.283232 4.96774152 507.92320800000005
99.019728 3.34447704 511.712784
98.364456 4.14150552 509.81695199999996
96.00328800000001 3.66116544 509.463072
96.224832 3.09576312 510.57540000000006
94.955904 3.7060869600000004 508.908888
93.85941600000001 3.3003712800000002 509.08320000000003
92.988432 5.28202296 505.584864
97.924608 4.53833568 508.88347200000004
97.24644 4.1260716 510.12691199999995
91.910952 0.8780256 513.747504
89.091792 -0.89558424 516.3975360000001
55.065009599999996 -2.2909104 514.8090000000001
92.457504 0.46874721599999997 514.848528
82.620504 -4.09719888 521.661528
84.876768 -2.05336008 518.9592240000001
79.46676 -5.08888584 523.6274159999999
81.75031200000001 -4.58312472 522.199152
78.86304 -3.17919168 519.501168
72.900576 -4.6465596 522.280008
77.635584 -5.29486776 524.231136
75.378168 -5.03692344 523.572912
78.91444800000001 -4.81302936 522.922464
74.709216 -4.699481759999999 522.662904
76.710672 -4.85048448 523.426536
77.251176 -4.4622936 522.61956
77.85144 -4.7872368 523.201824
76.134456 -4.3542828 522.410904
72.683136 -5.2028294399999995 523.365768
69.3783072 -6.32573136 524.578392
69.665616 -5.71625208 523.4148720000001
75.138624 -4.040393760000001 521.5424399999999
67.4320968 -5.9976864 523.18152
73.37318400000001 -3.94232544 520.3051919999999
71.2485288 -3.78612432 519.034176
78.822792 -3.6473083199999996 521.132976
73.219896 -4.25599632 521.192232
77.40590399999999 -3.95568432 521.7138
83.609712 -3.57574752 521.1801360000001
77.59648800000001 -3.48159024 520.457112
79.490448 -4.4796636 521.9986319999999
80.041752 -4.855613040000001 522.810792
78.265944 -4.42833264 522.25452
75.280104 -3.45261312 520.187976
74.182824 -3.85410672 520.825032
74.61036 -3.0470184 518.990904
72.882864 -3.7772136 519.5512080000001
72.479952 -4.13923896 520.4777760000001
71.77907520000001 -2.76367248 517.678704
73.430784 -3.24373176 518.783112
73.937808 -3.48015672 519.779664
78.306696 -2.7994255200000002 518.14476
76.051152 -2.90980368 518.8554
75.6828 -0.9218779199999999 515.1333599999999
71.13083759999999 -6.99595056 526.216608
69.7277088 -7.079213520000001 526.2492960000001
74.821608 -5.74376184 524.590416
77.451336 -3.21501456 519.106176
80.259768 -3.93780888 521.163576
81.161208 -3.19336128 520.379424
84.854952 -3.1010191199999997 520.74864
80.34732 -2.69515296 519.298272
79.891632 -3.36951576 520.3008
78.820704 -2.1668004 517.211856
77.12092799999999 -1.51826544 516.187368
81.98100000000001 -1.19905776 516.3126480000001
77.177232 -2.58992064 517.980312
81.171072 -1.7583746400000002 517.829616
81.158184 -1.46825208 516.6954
88.209432 -0.9331300800000001 516.721032
87.416496 -0.267196896 515.898216
76.474944 -1.16914968 515.593152
85.002264 -1.5201129599999998 517.398264
89.39354399999999 -1.5062536800000002 517.405824
87.847992 -2.29450176 519.115824
84.31120800000001 -0.9898041599999999 516.4714799999999
80.43552 -2.20196016 518.243256
87.814944 -1.63546128 517.841208
90.110592 -0.84496968 516.346992
83.905344 -2.1678083999999997 519.1619039999999
84.784176 -2.44668096 519.753168
81.158616 -0.9769176 515.72592
92.99685600000001 -0.079014744 515.809656
92.62548 -0.7200770400000001 516.6753120000001
89.50932 0.37947168 513.94824
88.553736 0.82788192 512.804448
89.26178399999999 -0.47750623200000003 515.755512
88.44803999999999 -0.46039391999999996 515.775384
81.912456 0.9421646400000001 512.11296
83.30112 0.40631702399999997 513.636336
70.1787384 -2.09644056 516.235248
78.001344 -0.497484216 514.05984
80.18136 -0.19525795199999998 514.293336
70.8108624 -1.63367496 515.513232
75.233808 -0.683827416 514.34496
80.146584 -1.16185464 515.974392
73.330128 -0.45395301600000004 513.501264
72.08308799999999 -0.571995864 513.544536
81.224568 1.9583891999999998 509.88888000000003
74.01888000000001 -0.82125792 514.455912
76.2606 -1.60726176 516.5591039999999
76.147416 -2.21768568 517.56084
77.96728800000001 -1.7277948 516.5375760000001
77.108904 -1.98627624 517.000392
75.026448 -2.43272808 518.026032
80.059608 -1.86951888 517.1598
86.69635199999999 -2.04517008 518.5835999999999
85.757328 -2.2446936 519.213528
83.349288 0.024801732 514.3746239999999
82.727784 -2.27573928 519.3396720000001
79.49995200000001 -2.5766388 518.203872
81.088632 -2.11435992 518.73804
82.002528 -1.8650203200000002 518.592096
77.89824 -2.30629176 517.315608
74.028744 -2.69610984 518.20092
72.193824 -3.4657308 518.631336
73.017432 -2.6414013599999997 517.746888
76.573728 -3.37367736 519.9649919999999
82.27008000000001 -2.8402876800000003 520.021584
90.893592 -1.5491037600000002 517.511448
88.33356 0.380117808 513.97668
90.40896000000001 0.20119723199999998 514.607832
84.20155199999999 0.35986089600000004 513.902376
86.77692 0.234357336 514.830528
91.91750400000001 -0.18700624799999999 515.695032
91.32847199999999 0.33894093599999997 514.695024
87.871608 0.102465648 514.931832
85.395672 0.232550496 514.5325919999999
85.051728 0.78322464 512.969328
81.279 0.110331576 514.009584
80.3412 -0.676786608 515.144448
80.197272 0.332846136 513.2021040000001
93.687696 1.89852048 512.03844
86.37480000000001 0.7092560880000001 513.602496
84.093624 0.95385744 511.97378399999997
87.3558 0.89392824 512.9136
77.946768 3.6697968000000003 506.05307999999997
84.073032 1.36450368 510.926472
91.349568 1.1640823200000001 512.568144
90.72799199999999 0.6258495599999999 513.66096
93.701016 1.51169832 513.196992
89.199 1.4770692 511.598016
91.055376 2.38111416 510.487344
92.347416 2.6381088 510.291576
86.373864 1.71001296 510.92877599999997
89.72323200000001 2.07704232 510.579072
87.546096 2.0263492800000003 510.287616
93.56767199999999 2.5770384 509.96606399999996
85.135248 1.9532548799999998 510.15038400000003
90.597456 1.59780096 511.490232
93.219552 2.2790808 510.946056
82.353312 2.91054096 508.21142399999997
92.61957600000001 1.5811444799999999 512.87832
82.673352 0.658367928 512.994384
78.865488 0.4919562 512.37576
79.843464 1.68072408 510.40180799999996
72.625896 0.85494024 511.286976
71.4354912 0.5698797840000001 511.859952
79.090848 -0.075032208 513.625104
74.697984 1.2348784800000001 510.347808
75.740544 1.9723579199999999 509.43787199999997
70.120944 1.40042232 510.09047999999996
77.510736 1.14261408 510.75936
75.385584 1.19545704 510.912288
75.636504 1.70528472 510.22835999999995
74.615904 0.5188915439999999 511.354368
83.364624 0.9948960000000001 511.367544
78.80507999999999 1.00394352 511.09034399999996
81.330408 1.3689849600000001 511.060392
82.48536 1.1265552 511.322976
77.931 0.6935009759999999 511.56021599999997
75.198312 0.139603032 512.4296879999999
77.564088 0.291755808 512.3133359999999
80.35308 0.9526463999999999 511.916904
75.80556 0.7652772 511.614792
69.7833792 1.9840140000000002 508.73853599999995
75.844224 -0.18289584 513.400392
76.920336 0.78658704 511.586352
73.974024 -0.0214866648 512.4384
76.592304 -0.630929952 514.444968
76.395744 0.264590136 512.4114
78.141024 -0.012038392799999999 513.069696
72.770976 -0.96264576 514.591992
71.1789264 -2.16088632 516.758112
73.260576 -1.80759168 516.674376
72.2916 -2.1776364 516.9551759999999
70.7316408 -5.5298268 523.460232
71.5346064 -5.62337784 523.938528
70.27162560000001 -1.25554104 514.3662
67.7314512 -1.48027392 514.687608
66.9972816 -1.6968456 515.0960640000001
68.72641200000001 -0.9964828800000001 513.876168
68.20956 -0.6182735039999999 513.1726560000001
68.3586576 -3.2756760000000003 518.403312
62.983655999999996 -2.53899792 517.0092480000001
60.677222400000005 -2.4475392 515.994624
66.067488 -2.2730796 516.3019919999999
66.986064 -2.13716808 516.148488
69.2027928 -2.34220752 516.493224
65.9954592 -1.51166592 514.512288
62.070660000000004 -0.08460576 510.819552
64.7351496 -1.4873551200000001 514.022328
67.8981024 -1.07137656 513.958032
69.34522319999999 -1.30941576 514.2486240000001
67.10131439999999 -0.77823216 513.265536
66.1925088 -0.5522353919999999 512.525952
64.87949520000001 -0.91874376 512.6428080000001
67.32874079999999 -0.29889864 512.3991599999999
64.3943376 -0.37777147200000005 511.793928
63.3056616 0.510957144 510.082992
69.1972416 0.9673336800000001 510.741144
63.2397528 -0.25725132 511.50801600000005
58.3439832 0.268387488 509.996664
65.8046232 0.6755688719999999 510.27444
68.9042232 1.4198637600000001 509.75899200000003
63.061056 3.7796450399999997 485.523504
71.4410208 1.07666064 510.44709600000004
60.974316 -0.458478432 511.297416
68.6238408 -0.096885648 512.1846
62.813232 1.4756723999999999 508.23468
63.8985384 1.8141083999999998 507.91831199999996
67.288716 -4.58547336 520.113168
65.1997296 -2.19191256 515.880144
70.2229752 -0.06561153360000001 512.310816
63.65065679999999 -1.28561688 513.224136
56.828527199999996 -1.2480768 513.368064
61.7962032 -2.7854402400000002 517.133016
61.8550488 -0.749844 511.95952800000003
60.6623976 -0.9570888 512.4042000000001
63.766029599999996 -0.7993152 512.315424
61.4905416 -1.31580936 513.2954880000001
60.3048096 -1.33303536 513.392904
58.2881688 -1.12841424 513.307368
55.519020000000005 -1.21009392 513.07416
54.514663199999994 -3.42888048 516.470544
55.0238904 -0.94390416 512.027856
57.4618176 -0.9499989600000001 512.091
59.3691984 -1.5248339999999998 513.938592
52.9321032 -1.39734144 512.552376
59.8576176 -0.537533136 511.70292
52.8841008 -1.78667928 513.345744
53.730540000000005 -1.56191256 513.13428
62.5900536 -1.49932656 513.600048
53.924263200000006 -2.39560992 514.8491759999999
38.6515008 -1.9541239199999998 510.72271200000006
56.2128696 -1.0117843199999998 512.037072
49.399257600000006 -1.22856696 510.911784
55.57133520000001 -2.97837 515.666088
52.991150399999995 -1.0038247200000001 511.386336
26.7411384 -0.096124752 505.064664
43.3664784 -4.60352448 517.080888
36.1009296 1.7932932 503.64439200000004
47.785305599999994 -1.518408 512.08236
53.5244472 -0.60266628 510.2838
44.747028 -1.19067696 510.831072
59.086900799999995 -0.16082128799999998 510.89162400000004
60.2419176 -0.10535399999999999 510.62990399999995
52.48767599999999 -0.91733184 510.243768
44.239248 -0.47744258400000006 509.22468
43.8547608 -0.19935280800000002 508.451544
33.5463768 -2.35995048 512.044488
43.2137232 -1.44153864 510.99933599999997
46.7576712 -1.4977296 511.70184
40.9381056 -1.23199776 510.294744
47.234592 -1.9706335199999998 512.660592
57.0267864 1.08107712 508.26945600000005
61.9309008 0.44562412799999995 509.766624
51.987096 -1.33576488 512.067888
50.181875999999995 -1.4222196 511.871544
48.033864 -1.18059768 511.20583200000004
46.9439784 -1.09883016 510.40166400000004
44.2554912 -3.4212132000000004 514.760616
45.927921600000005 -1.26189936 511.011792
40.331556 -1.78303032 511.35084000000006
31.268411999999998 -1.7705628 510.125184
35.3121624 -2.42465472 512.28252
37.405490400000005 -1.8314042400000001 510.18710400000003
41.7030984 -1.6558272 511.20396
35.8786944 -1.8908344799999999 510.2856
38.4961176 -2.19349728 511.78593600000005
51.080544 -1.6048108799999998 512.584848
56.79527040000001 -0.690194736 511.073496
49.0881672 -0.505962792 508.690152
39.431016 -2.15815464 512.239104
36.4677048 -0.8144884800000001 508.429944
30.8072376 -2.23707528 510.81731999999994
43.428369599999996 -0.679442184 509.158224
