# .PCD v0.7 - Point Cloud Data file format
VERSION 0.7
FIELDS x y z
SIZE 4 4 4
TYPE F F F
COUNT 1 1 1
WIDTH 1220
HEIGHT 1
VIEWPOINT 0 0 0 1 0 0 0
POINTS 1220
DATA ascii
72.78314400000001 1.38594312 489.41135999999995
72.77767200000001 0.9234345600000001 490.65264
72.821088 5.61447864 492.090696
73.055592 4.59509976 491.87692799999996
73.03752 6.52342104 489.430872
68.723172 -1.9734271200000002 493.47093600000005
69.5015136 -1.4944176 492.620616
69.1666128 42.8771664 493.538328
72.588888 10.0604448 494.532072
65.5432992 44.4285072 490.23295199999995
66.38794560000001 42.493464 489.49091999999996
67.1390208 21.4946136 504.676656
71.4530592 4.46469048 482.969736
60.540588 42.6434832 484.907616
51.476169600000006 47.8547712 484.69608000000005
69.4063152 51.006024 501.97032
63.2382624 53.591688 494.506584
61.7093496 54.2554128 493.142256
64.6135704 41.9031936 487.972512
60.4522872 22.6858536 510.391944
70.4031624 33.275779199999995 506.18966400000005
70.2593136 36.653738399999995 501.90876
67.4829936 26.715873600000002 507.09492000000006
72.003096 23.551948799999998 501.22742400000004
68.4997128 -1.47712392 489.63132
69.3207288 -1.125306 489.128112
69.735276 36.4306464 489.71354399999996
68.349636 -2.00362176 491.988312
66.6159768 -0.382446648 488.141712
68.2433712 -1.84672872 490.605624
67.274028 -1.8748850400000001 490.286448
67.7371608 -1.5814958399999999 489.687624
27.268912800000003 -3.1204000799999996 490.034592
27.963928799999998 -4.3879788 492.331104
26.864395200000004 -5.78429856 492.73092
7.0198927200000005 14.1039 509.100336
17.143099199999998 20.2543416 501.451704
25.145935200000004 -2.89713312 487.94248799999997
27.9839592 -2.23982208 488.940408
20.211876 5.24105064 493.25615999999997
26.335763999999998 -0.703772784 484.46351999999996
24.9054192 -1.0402272 484.57548
28.673301600000002 1.8831729599999998 481.099608
26.2137816 0.87737544 481.528656
33.711069599999995 49.2103944 482.521392
39.8598336 49.5722376 483.298488
25.329895200000003 1.3534776000000002 480.15993599999996
35.4680136 44.3138184 482.331096
43.4686392 46.1549088 482.141304
26.297287200000003 2.5611372 478.463184
24.9145128 1.6844882399999999 479.50048799999996
33.0167808 51.8170896 483.34701599999994
35.727372 52.448868 482.84827199999995
30.6263304 52.90272 486.69271200000003
15.8648256 28.256140799999997 509.175432
19.029744 26.645752799999997 504.418896
57.5634384 19.9957824 511.979832
22.2804504 37.4800968 503.52652800000004
22.080981599999998 41.7019464 501.49526399999996
29.6588088 48.5889768 486.880848
27.919699199999997 49.4770392 489.580632
26.5454784 47.350764000000005 490.799304
19.8160416 51.6270816 493.399584
16.618903200000002 51.9910992 493.088328
18.521892 53.174822400000004 490.47357600000004
21.2069592 52.913548799999994 492.627384
20.7008136 50.7281544 495.26928
13.491626400000001 53.087724 490.09600800000004
15.511687199999999 52.9256592 491.030352
13.7846592 52.4669544 491.153688
12.8868408 51.9518664 492.32923200000005
16.531128 53.0392104 491.1192
61.4466216 55.234778399999996 492.952824
19.2469896 53.0760528 490.35614400000003
14.695351200000001 53.062300799999996 490.382784
21.8997144 8.621013600000001 483.913584
23.2674408 3.18717 482.40763200000004
25.1370072 -4.65433776 491.079096
25.994757600000003 -3.74664888 490.358448
27.271029600000002 53.7579576 490.368096
28.548021600000002 -5.01829488 493.062048
32.3210952 -5.811733439999999 496.155312
30.6490464 -5.16148992 494.44884
35.743449600000005 -6.622415279999999 499.000032
57.6640728 -7.7545079999999995 500.33332799999994
33.5488392 -8.328196799999999 498.123432
32.8729608 -6.6041316 496.597968
27.7477272 -5.1565392 492.692544
28.791302400000003 -3.6843285600000004 491.68296
6.37913088 28.559887200000002 518.154912
33.2970768 -5.89768704 496.95624
21.554834399999997 22.3589664 499.48272
34.51932 -7.14617496 498.02817600000003
58.6513944 -7.131594960000001 499.25872799999996
55.2496536 -6.7065847199999995 501.010848
54.992347200000005 -7.4167271999999995 501.591168
19.5052608 22.4850528 502.268328
36.5553432 -5.84204112 499.449384
35.0023248 -6.51367512 498.38731199999995
58.811011199999996 -3.9797819999999997 496.57363200000003
64.2568176 -5.31554616 499.12876800000004
60.7079088 -6.140045519999999 497.87827200000004
54.148788 -6.7755585599999995 501.63084
54.309672 -4.38212592 499.52124
58.7666304 -7.527024 500.510376
60.0901704 -6.65061552 498.81888
59.607842399999996 -7.068591359999999 500.063544
59.9553504 -7.4408328 502.3962
37.234821600000004 -7.9731792 500.233392
36.6324984 -7.1937144 499.61628
35.791632 -7.6549176 499.09276800000004
60.905088 -6.41881224 500.399496
59.7807936 -7.063488 501.39072
56.919895200000006 -7.8054048 501.587568
55.3596336 -7.988349599999999 502.16011199999997
52.732980000000005 -8.5204656 502.42413600000003
51.674364 -8.5105512 502.434432
56.747664 -8.932089600000001 502.7004
56.2720968 -8.0151696 502.096896
59.2609104 13.8691368 510.731136
49.660156799999996 -5.813519759999999 502.004232
44.5957272 -10.092348000000001 503.32831200000004
58.4463384 -7.7951736 501.557904
48.4132536 -4.05866304 499.70988
52.4034792 -7.852780800000001 502.2378
65.2442112 8.2311264 503.337168
47.55416399999999 -7.757639999999999 502.32506399999994
42.2140176 -7.9521552 502.307856
39.7108584 -6.4084917599999995 500.96829600000007
40.3660512 -8.8754688 502.104888
21.4685208 24.343272000000002 501.729984
22.3395984 27.1523304 498.538224
42.650726399999996 -10.0995192 503.49837599999995
56.449087199999994 24.958044 521.633016
45.0471528 -6.16770072 501.437808
44.1745776 -8.2316808 502.560216
17.1818928 22.8611952 504.708048
42.45696 -6.9670116 502.086168
40.2194952 -10.0775808 502.88184
38.937888 -9.991944 502.012296
36.893289599999996 -9.447350400000001 500.537736
47.6814528 -9.8793 503.301024
52.0398432 -9.555206400000001 503.041968
49.6776024 -8.5802976 502.72977599999996
44.387380799999995 -9.111024 502.911936
45.388296000000004 -8.9822376 502.93267199999997
41.3983224 -10.1685096 503.22002399999997
58.898476800000005 15.164611200000001 512.170272
61.830338399999995 22.1293584 508.54212
68.1350472 24.903093600000002 505.703808
66.8833488 23.8009824 505.21507199999996
58.9933656 11.1224808 512.012448
59.63136479999999 12.3497352 511.873776
59.831244000000005 13.488083999999999 509.89046399999995
60.985663200000005 12.646583999999999 509.13597599999997
58.5094968 16.0672752 512.29944
58.8800304 16.056684 513.518688
58.840142400000005 14.6971944 510.980976
59.0945112 14.3508528 510.101784
58.72968 16.7141736 509.787144
70.0599744 17.3271168 501.48539999999997
58.4275464 15.7374072 511.279776
59.217148800000004 17.360877600000002 513.900288
59.726916 18.8636544 509.12337599999995
62.3753856 18.6725952 507.483288
63.0913176 8.430084 504.725328
61.7436504 6.060391920000001 506.228616
57.342009600000004 20.9138328 512.871768
57.5106912 21.1157424 511.58181599999995
58.1335848 16.7603472 511.772472
62.96522399999999 12.2162184 507.31480799999997
58.632141600000004 14.2285392 513.427608
59.9675688 24.045897600000004 514.525896
56.4753672 24.319108800000002 521.5158
59.8402224 12.168100800000001 514.8770400000001
19.4805144 37.8279504 514.2385439999999
22.3832664 37.9030608 513.031968
55.2693384 27.5296248 523.014192
25.8354072 38.164968 510.45984000000004
24.108883199999998 39.2274216 508.14511200000004
40.3928352 37.8323352 516.0834
51.6801384 31.1158008 520.616664
54.313603199999996 28.6638696 520.339176
64.6246368 24.701680800000002 508.26189600000004
63.9004896 24.152076 508.687776
60.388560000000005 25.139008800000003 516.871584
58.073241599999996 23.686300799999998 521.091
56.7539352 25.579656 520.214112
59.759517599999995 25.770672 517.667832
52.3452312 33.4816704 523.4125680000001
57.2960952 35.6541912 525.9025439999999
55.3090536 26.222558400000004 521.399232
58.8319848 26.217554399999997 518.462712
56.2223232 27.3793248 519.6474
60.9201792 24.58998 515.186424
58.3476624 21.437114400000002 517.8564
69.40704240000001 39.5652384 511.31361599999997
60.5843136 24.3453528 516.106728
60.0833952 23.839905599999998 515.532168
62.455428000000005 25.756847999999998 512.8452
68.8046328 25.6206888 505.72994400000005
63.8925408 26.5998384 513.059112
59.5685448 22.886265599999998 515.432448
58.868171999999994 21.2077512 513.8346240000001
61.891315199999994 25.2196488 514.469736
57.8953944 21.432275999999998 513.429048
58.9266216 21.9089664 510.10776
59.2353288 21.6116136 515.482488
58.351665600000004 20.562494400000002 513.653544
44.414568 35.553816000000005 519.2231760000001
58.2756768 17.7046128 512.619192
59.614027199999995 22.5774504 513.3006720000001
57.8040192 21.864204 512.4869279999999
70.1596656 15.4890576 500.66582400000004
22.0771152 31.9022568 504.941832
21.3252912 32.358959999999996 506.08663199999995
62.131319999999995 25.306545600000003 511.47576
61.3914408 24.230771999999998 511.18135200000006
58.8317184 22.547930400000002 512.2158479999999
67.0007016 9.4090752 501.933384
21.1942224 29.937492000000002 505.18908
22.3456248 31.382676 503.98228800000004
57.476844 19.1401344 511.30072800000005
57.884328000000004 18.859039199999998 512.297208
57.984732 21.1468464 510.37056
22.5152136 33.2167752 501.297624
21.198923999999998 29.3846688 503.00424000000004
68.791536 26.982957600000002 507.516048
67.5296136 25.6257144 506.270592
68.7039768 26.3923488 506.482488
22.5977472 37.318608 509.88204
20.236687200000002 35.362476 509.45824799999997
20.4544944 32.255712 507.01572
17.7265008 31.7427552 509.20315200000005
20.989296 34.7411016 508.59396
20.3196744 37.3124448 511.84468799999996
16.5907584 34.968528 513.405504
17.526283199999998 33.8562 511.61522399999996
20.0851632 36.3762792 511.014024
21.0921264 33.008659200000004 506.83608
26.640504 37.8482616 512.63964
12.1558536 43.1654256 507.37075200000004
49.5946584 37.6474608 521.9334
11.948011199999998 44.9158464 504.639
5.092758 42.883783199999996 505.787688
18.937943999999998 44.8396848 504.817848
20.335104 44.1548208 503.72172
22.723401600000003 39.6734112 498.321504
20.8283256 46.353823199999994 499.013064
21.6131256 47.67279119999999 497.227104
21.352874399999997 46.0889496 499.418424
20.2764672 47.9230776 497.05956000000003
22.821746400000002 44.8780968 497.304072
22.259916 43.5718152 500.06318400000004
63.0104472 40.5827928 520.665336
19.1118528 43.070436 508.151808
16.528284 39.655331999999994 514.722744
28.296928800000003 39.390048 515.092176
21.9974184 41.8478904 505.21946399999996
35.5128264 38.068452 516.352752
59.8107096 40.620009599999996 521.445816
59.19871680000001 40.3182216 520.22988
49.5587088 35.165131200000005 518.645088
60.0539976 38.0757888 518.765544
60.815570400000006 41.2521552 520.727688
51.8061096 37.7462952 518.57244
63.9936576 40.9421664 519.6497039999999
68.1946632 39.4478856 512.138016
61.769671200000005 39.777552 522.706896
58.8799512 37.8577152 525.182904
70.56515519999999 35.4717576 508.762584
67.76646480000001 27.4907664 508.18104
59.7964896 39.4925688 523.224216
16.9968528 42.063998399999996 510.29668799999996
8.5730112 38.7884808 513.61668
10.3099752 33.9488208 518.71464
20.363515200000002 43.587216000000005 506.84191200000004
16.654528799999998 43.2535968 508.775544
16.8352488 46.985076 501.35983200000004
17.1466272 46.145937599999996 502.450344
10.5304608 46.40706 501.980112
16.3895256 50.080068 496.908288
17.824010400000002 49.427193599999995 497.938608
17.51418 49.9660704 497.27167199999997
17.7391224 48.942158400000004 498.721608
14.3451864 50.52078 495.26351999999997
15.8031216 52.503516000000005 492.018696
18.1880856 50.195692799999996 496.583064
17.351856 50.5193328 496.36742399999997
17.2993824 51.3237672 494.12901600000004
15.9552648 51.392988 493.960176
18.6510096 51.3734256 493.71451199999996
16.274887200000002 50.9251464 495.01115999999996
17.784216 51.829826399999995 493.103664
18.873828 52.6574304 491.284512
14.966359200000001 49.38674400000001 497.521512
16.5271392 50.5910592 495.93895200000003
18.4618368 49.0444416 498.1212
18.5989536 49.4985024 497.20514399999996
19.2037104 48.596083199999995 497.682432
19.8490248 50.4683928 495.491256
25.7578416 50.8162104 492.6312
60.483563999999994 55.145887200000004 491.97513599999996
24.7213944 42.4282032 492.995016
18.7983648 51.9238944 492.55106399999994
20.702807999999997 52.20947519999999 493.292016
20.100168 52.38915119999999 492.166872
20.8653768 51.565147200000006 494.33364
22.0738176 51.7315752 494.479152
22.2551064 53.2063224 492.928488
63.47465999999999 56.41398 492.864264
23.3003088 53.1428184 493.01863199999997
21.586356 52.4915712 493.715088
65.1303 55.6789104 494.084592
66.1165776 55.3726728 494.881416
63.749656800000004 56.736777599999996 491.750208
67.9971384 55.902924 494.515512
67.0052736 50.8599432 494.956152
64.38436560000001 56.399803199999994 492.28092000000004
63.5125392 54.69153119999999 494.76880800000004
66.9154104 52.689736800000006 495.965664
67.60451520000001 55.251432 496.107432
66.6577224 54.356508 496.328976
69.04115279999999 47.408968800000004 505.685376
65.7692568 54.73572479999999 496.081152
67.025556 53.690522400000006 496.865952
66.0742056 53.637408 496.23811200000006
67.0948704 49.9478184 494.51904
68.03496 48.3518736 494.48296799999997
68.4646128 47.167668000000006 494.128152
68.392656 49.894344000000004 495.89423999999997
68.2158024 50.5608552 496.22256
68.75676 51.2137512 499.757976
68.7976488 50.057244 499.26707999999996
68.18508 51.128783999999996 497.14236
68.3259408 55.54623599999999 495.510984
70.9985376 45.975924 510.83920800000004
71.93712239999999 51.8166 501.012
69.413868 46.029564 496.306368
69.9474024 44.3028744 500.09716799999995
67.98196080000001 46.3715856 493.187184
68.6762352 46.237730400000004 493.977384
67.2898536 55.693288800000005 495.206064
68.3370936 55.051135200000004 496.62367199999994
67.2246072 54.656755200000006 497.07763200000005
66.2916096 56.583014399999996 492.674832
66.9097512 56.172189599999996 494.132544
68.8341384 51.995383200000006 498.38904
69.4656288 52.0279848 499.61332799999997
68.2711848 54.398728799999994 497.36735999999996
70.5601152 52.0087752 500.14879199999996
70.0798104 44.8054992 512.3113920000001
69.2068968 44.1341424 510.23699999999997
71.4015072 46.472544 510.28545599999995
70.3655712 46.557230399999995 510.166512
69.7006224 46.0890432 510.65359199999995
69.52199759999999 46.733385600000005 509.84560799999997
69.1920576 46.7840952 502.73568
69.5923992 48.131676 503.49859200000003
69.1174872 49.3770672 502.65252000000004
69.370812 40.2791184 511.77895200000006
69.7395672 41.9354424 507.60518399999995
69.1008048 44.9450928 509.285736
69.7272336 43.8161184 512.14932
69.0575256 42.0248016 512.881992
70.5851784 45.505634400000005 511.56143999999995
69.977412 41.321844 511.904016
67.6243296 42.7838976 516.641256
69.121944 47.855592 499.177944
69.0011712 49.419547200000004 504.364104
70.3443024 47.636294400000004 508.243608
66.951576 41.481468 514.389816
69.2561448 45.8887104 506.04372
69.5433528 45.372240000000005 511.39252799999997
68.8426776 50.9689008 501.002064
69.3550944 48.1611312 504.807624
69.1771608 49.266828000000004 501.213024
68.9658408 48.602728799999994 505.588752
68.9080968 48.047169600000004 506.581344
69.40414799999999 48.613154400000006 506.409552
65.949264 42.025068 515.43252
62.564004 41.7600576 519.600384
69.1534008 46.81411920000001 508.928832
66.3076512 41.6592864 518.2024319999999
66.8364624 40.4434224 514.024272
64.8067536 41.3328816 518.449608
61.819236 41.4565344 520.273296
64.1259648 42.7102704 518.447448
64.68671520000001 42.941447999999994 517.458312
61.180005599999994 40.344573600000004 521.730504
62.491989600000004 40.0380336 521.824752
67.0979376 42.5915784 514.652976
66.682872 39.4918704 513.76644
68.2815384 42.989932800000005 513.9394560000001
67.770036 42.065315999999996 513.722232
67.7364336 41.1403392 513.334512
68.51746800000001 34.880464800000006 510.54048000000006
69.195672 37.171576800000004 510.6024
69.5915064 35.8958664 510.005592
70.85576160000001 29.201968799999996 505.810224
67.4528976 40.055112 513.079416
69.6260448 34.191446400000004 509.499504
68.1805368 33.7631904 510.14916
63.457768800000004 27.4840632 514.05516
63.7604496 28.9777608 513.999072
67.8409416 32.7929976 509.94000000000005
63.814363199999995 37.831284 516.2814
70.3214784 39.303007199999996 510.55660800000004
70.3834056 43.813317600000005 504.3438
70.6875336 36.7087608 507.96684
67.3241832 31.006015199999997 510.22512
67.7720808 31.812804 509.72011200000003
72.064656 21.741436800000002 500.85251999999997
70.92077760000001 26.5110408 504.654336
70.0260696 25.523992800000002 505.05516
64.79749439999999 28.2909384 511.900992
63.2999664 10.1303352 506.62562399999996
72.133128 24.9286536 501.49836
72.132624 23.8518216 502.53465600000004
72.21355199999999 18.093873600000002 499.10119199999997
69.8592384 26.265283200000002 505.83657600000004
71.2548864 27.4450536 497.186208
65.2149 26.8150464 508.92573600000003
64.2256632 26.0311752 508.72687199999996
71.38638 25.602494399999998 503.875872
69.8594832 24.5780568 504.66247200000004
71.5272624 23.2636464 496.800072
68.898672 8.4126096 499.650336
71.727012 15.2793576 499.22942400000005
72.125856 22.173372 501.897816
72.026352 24.870866400000004 502.970904
71.9671824 13.117039199999999 494.796024
71.8378848 18.9628272 496.44921600000004
71.7695856 15.6463344 498.056832
71.9348184 15.1846344 496.65204
70.3479024 33.4250712 500.436936
70.9568712 30.140193599999996 501.459552
64.2626784 21.6923472 505.934568
68.4712512 29.197101600000003 508.002912
68.5743192 28.097078399999997 507.850128
71.6135472 27.036633600000002 502.9776
68.9760936 24.8469336 505.322784
60.5510208 15.9269976 508.70491200000004
68.2626528 24.1047576 505.15416
69.0593904 28.7894232 507.411936
65.2991904 28.2965112 510.710616
66.388068 30.4163712 511.362
66.0424824 28.698228 510.701472
66.8142144 30.1676472 510.67735200000004
68.6984688 33.074495999999996 509.34815999999995
65.10525840000001 27.817120799999998 509.776632
64.24295760000001 26.8620048 509.770872
69.3226872 27.959039999999998 507.067632
71.065404 28.355385599999998 505.03255199999995
70.2855144 28.071324 506.221056
71.0006544 29.359159199999997 504.57729600000005
70.6799232 30.1951656 506.568384
70.551396 31.0117752 505.442088
70.818552 30.233404800000002 504.94615200000004
68.2735464 31.634999999999998 508.865112
70.46529120000001 27.243108 505.4724
70.2386352 40.1846904 503.725824
65.8781352 27.6658704 508.983912
68.8181472 32.3426952 508.820472
70.68345839999999 34.1948232 507.81564
70.91906399999999 35.778434399999995 507.03436800000003
69.39774 31.65498 508.294368
68.1994944 32.376888 509.33419200000003
70.0509744 32.779202399999996 508.389768
70.1349336 30.820082399999997 507.68028
70.033536 28.9557216 506.90433600000006
69.6237552 26.973684000000002 506.596104
68.61530160000001 30.5168544 508.272984
66.3118488 27.0088416 507.997944
67.7876688 30.756261600000002 509.256072
64.4524992 27.69696 513.0491039999999
65.2947192 29.2848264 512.234856
63.70866 27.4496904 511.844976
65.6478504 28.8685872 511.47100800000004
65.62521360000001 33.0839424 513.1617120000001
67.4743392 33.1947144 510.63508800000005
64.6979616 23.8904424 507.05575200000004
68.4321192 35.9905824 510.71256000000005
67.81930559999999 35.2571256 511.190496
67.5843696 34.139390399999996 511.01366399999995
62.34443280000001 27.583416 514.990296
62.9272728 26.283124800000003 514.278288
61.494408 22.9977648 510.15506400000004
60.692047200000005 22.1956776 509.535648
63.262951199999996 26.1332856 511.604208
62.036798399999995 -5.88740184 500.05540799999994
61.87091040000001 9.1314216 508.383864
61.3802952 24.834096000000002 512.5626
61.075562399999995 25.509455999999997 515.83644
62.5375944 23.219474399999996 509.154264
67.2308208 24.6722616 505.73915999999997
61.9554096 4.45877352 509.12654399999997
63.868593600000004 23.6279088 507.82888800000006
68.3558856 10.161036 500.849136
66.33131039999999 24.354756000000002 505.76932800000003
64.858788 23.1790104 506.104848
65.6554752 24.0937128 506.36275199999994
65.8112328 23.568710399999997 505.54771200000005
62.4555936 15.1220952 507.541176
63.60255360000001 -5.5078128 499.50093599999997
62.5500936 -6.23629656 501.41491199999996
64.4004936 -4.38548904 496.98576
61.3756656 -5.9983675199999995 498.777696
62.572716 -5.5121191199999995 499.25808
62.340811200000005 -5.474061359999999 498.020256
66.4339464 -2.22149736 498.172032
63.3934224 -4.87700496 497.573928
62.185608 -5.3598232800000005 496.79920799999996
67.0515336 -3.34835064 497.34108
70.2541368 2.0999887200000003 494.649072
63.204228 -4.84274664 496.306512
67.2893064 -2.7887644799999998 494.61868799999996
66.8160504 -3.8044288799999997 496.488024
62.6851512 -2.13699168 492.444792
63.2352312 -4.65720768 495.452664
65.06220239999999 -3.7167156 493.892712
67.4545824 -3.3270271200000003 495.767664
64.0187424 -4.29027336 494.807544
65.3863536 -3.1633372800000004 492.67958400000003
66.2782464 -3.19374792 493.47036
69.817968 7.6400136 496.355544
69.54263279999999 4.89781224 496.64354399999996
66.18520079999999 -2.77973208 491.85777599999994
69.23016 -2.55124512 494.53718399999997
71.02463039999999 -0.666540072 493.89408000000003
66.4348104 -3.31139592 495.21599999999995
65.31132240000001 -3.85581528 495.933912
71.364384 10.4628816 496.26259200000004
70.4280096 9.1244304 496.129392
69.8514336 10.2247128 497.163312
71.1151272 7.8965136000000005 495.39024
72.324 11.7345744 492.56712
72.729 10.691748 495.40824
71.4066984 13.2388704 497.919168
71.6589936 17.5036104 494.661024
72.577656 9.2105064 490.48056
73.096992 6.83419032 492.516864
71.392572 6.75397512 494.904384
72.49543200000001 7.0578324 494.01648
71.9174232 9.2993904 495.1728
72.166392 8.1779976 494.535888
72.852192 8.1120672 493.323408
72.471024 4.8992328 492.849576
72.48261600000001 3.9605716799999997 492.440472
72.58464 9.211572 493.97392800000006
71.80416720000001 5.06163888 493.553448
71.55347760000001 5.84647416 494.12664
71.2000944 -0.98539848 492.13886399999996
67.3911432 -2.5982424 492.90962399999995
69.4200744 -2.3380056 495.503496
70.83460799999999 -1.57266 493.86319199999997
70.5746448 -1.349514 492.90696
71.2304208 -0.74446704 492.955704
21.9165552 22.0760208 494.85463200000004
-1.6093173600000001 63.475596 469.16496
32.2324992 71.4418848 458.61768
32.6715192 71.3490264 459.55800000000005
4.83464232 64.95504480000001 470.158056
64.6400304 -2.83105656 500.04208800000004
65.0851056 -3.9658212 499.272768
-3.32894376 65.83464000000001 465.03612000000004
27.698335200000002 72.825336 455.36623199999997
28.6203888 72.242424 456.552
-2.02489848 62.0592768 471.075912
0.222132672 67.441788 464.50274399999995
62.287588799999995 67.8707496 471.29407199999997
66.0960288 66.314016 474.957216
65.25323279999999 65.9590416 475.47331199999996
6.4859472 64.8062496 470.243664
7.4211768000000005 64.1921256 470.69431199999997
6.34574304 64.4698872 471.21285600000004
50.8550616 65.7938448 474.80947199999997
51.383087999999994 66.3296112 473.49
18.1075896 69.3668808 461.967984
-0.41962348800000004 73.60884 449.922024
3.80077776 72.528408 453.03084
54.96832799999999 71.434584 462.525048
60.578071200000004 68.336208 471.21076800000003
61.490196 68.3204472 471.00456
31.627007999999996 71.2762992 459.562752
30.9476088 71.4611448 458.548848
43.8058944 72.339696 458.15148
46.4072976 65.80217520000001 473.25016800000003
47.316276 66.8042856 471.487032
48.1907592 66.1391568 472.947264
40.7781792 58.3074936 485.63416800000005
41.2185888 57.7089504 486.190224
67.7490624 56.6596656 491.732208
42.225444 57.352125599999994 486.24696
41.9590728 58.200962399999995 485.69731199999995
34.1524152 59.969448 481.947768
34.9534224 8.6899032 467.368272
36.419508 8.4390336 467.8416
71.6594688 12.3734232 480.79447200000004
71.4355488 14.3981496 484.96255199999996
71.7011064 12.47724 484.107048
60.016104000000006 25.329311999999998 475.521264
63.1777896 24.3883584 477.11332799999997
61.488028799999995 22.0859784 474.007896
71.5018104 11.0077272 475.428816
71.1603216 11.750976 475.164936
71.5003992 11.466777599999999 476.18352
69.9813504 10.5470136 473.35931999999997
61.1877528 43.012634399999996 485.86608
58.838788799999996 43.345728 484.65640799999994
69.3436464 33.7907016 486.83743200000004
68.4416952 34.7753664 486.58068
71.7454656 7.1308152 480.165768
71.8783992 8.6870304 479.679192
25.322076 31.063456799999997 489.96201599999995
23.6781 30.462148799999998 493.74050400000004
24.5893752 32.417971200000004 490.409856
27.8530056 -1.6238714399999998 487.29852
33.5834568 -6.92912304 497.322648
34.3077192 -6.1711243200000006 497.69604000000004
58.0727952 19.778112 513.0257760000001
58.954665600000006 19.6908264 513.8787599999999
58.1875632 19.1661264 516.830328
39.948516 54.2217168 484.6662
40.8358224 54.5492304 484.990992
23.3095824 21.9499848 489.604032
21.8403072 21.3139368 492.56712
23.3734248 22.981953599999997 492.29971199999994
14.7304008 46.040716800000006 503.276904
13.5467784 46.42704 502.044192
18.6829992 46.8446328 501.324192
17.8319376 47.429236800000005 500.72724
24.3645552 24.787267200000002 492.28344
26.3172456 27.5641344 489.047544
25.8690744 25.878671999999998 487.13414400000005
7.7658119999999995 50.487984 494.042328
58.823892 56.171772 490.54600800000003
23.1782184 51.608066400000006 494.14716
59.6571552 57.1138416 491.283864
60.7859424 57.577132799999994 491.32908
60.501009599999996 56.92188960000001 491.891544
57.9625776 56.6896968 489.771792
57.5689104 57.522743999999996 489.45333600000004
69.33744 44.0099424 494.891568
69.8235408 42.8582376 497.212488
72.82008 50.205110399999995 504.553896
57.0505824 39.9812616 521.2476
54.9858816 39.345782400000004 521.69976
58.8478536 29.9969496 517.935312
57.0480624 32.6212272 518.657328
56.407701599999996 29.52054 518.742072
53.169940800000006 39.3761376 519.998688
55.39374720000001 39.7290888 520.30008
71.5994424 18.296748 500.448816
71.15975279999999 19.2434832 501.33304799999996
69.567336 42.6954888 495.63683999999995
60.5223648 29.0806704 516.962232
62.2870344 50.546484 491.81723999999997
63.1121112 49.076726400000005 491.606568
60.74231040000001 49.377686399999995 490.202856
67.5165168 11.9866608 502.14362400000005
68.178528 14.030856 501.892632
67.1304312 13.654908 503.36517599999996
61.582867199999995 7.316172 508.580712
61.571527200000006 8.4371832 509.32872
68.6498112 17.1377712 503.10792
67.4638344 18.1268496 504.13276800000006
66.83115600000001 15.850007999999999 503.621496
69.9542136 25.1830656 489.35124
71.7670224 21.0259368 496.762992
71.88426 21.077985599999998 497.981736
65.51101440000001 2.99118312 500.921928
66.6991008 6.39005472 501.01466400000004
64.55843999999999 5.47233696 502.95700800000003
58.593679200000004 16.5120408 518.372064
-2.8521864 72.1584 459.325512
1.79331336 66.12156 466.39720800000003
3.82492224 66.0748968 467.232696
4.19709024 65.1009672 468.82720800000004
10.200909600000001 72.538704 453.455928
3.011796 71.0751456 456.150312
4.5581976 70.050852 458.64827999999994
7.3640951999999995 68.42080080000001 465.9048
6.54385968 69.2553456 464.23656000000005
9.570124799999999 67.9357296 464.52124799999996
-3.8691302399999996 67.6581984 462.41380799999996
0.665776152 66.3353496 465.441984
2.16983232 69.97172400000001 463.740264
5.30380512 69.7352256 462.316392
-1.35623736 68.06702159999999 463.386672
-3.2153328 66.25445760000001 463.771728
-3.0045744 65.6366616 465.83279999999996
-2.41479936 66.072528 464.550552
0.13212964800000002 62.592508800000004 470.95531200000005
1.06499592 62.6620896 471.04848
-2.884176 63.4450392 468.46252799999996
-0.62776728 61.91791200000001 471.80448
2.10470184 62.6266872 471.26059200000003
1.9477195200000001 65.1985272 467.1036
7.118982719999999 59.4693936 476.8794
8.398756800000001 59.846954399999994 476.99719200000004
6.53560344 58.6284912 478.52481600000004
7.5809448 57.6236376 480.492144
8.4075192 57.261938400000005 481.78475999999995
7.46172 56.8469664 482.30978400000004
30.463243199999997 27.000705600000003 475.18617600000005
32.098305599999996 25.4028384 471.901896
29.5385328 23.197932 474.76116
8.3840184 53.4489624 489.492792
6.99010272 53.7210216 488.452104
6.214412879999999 55.886558400000006 483.76332
8.2185552 56.1453192 484.048728
7.913894399999999 55.1389608 485.52523199999996
7.3829016 52.483644 490.93416
7.3114992 53.017876799999996 489.943152
8.3392128 52.9468992 490.450824
3.6253252799999998 52.214126400000005 490.142088
6.79786632 51.781852799999996 492.22727999999995
5.74994592 52.166584799999995 490.992552
24.925550400000002 37.5515712 489.37406400000003
25.339471200000002 36.855756 487.45670400000006
24.065143199999998 36.855770400000004 491.64868800000005
5.8346532 52.8559848 489.647736
8.0447256 54.4404672 487.24228800000003
6.349340160000001 54.689407200000005 486.35186400000003
4.3822000800000005 55.323835200000005 485.24047199999995
0.0403652736 56.748362400000005 481.520592
2.2509432 58.1650416 479.31228
9.176479200000001 47.527732799999995 499.970232
8.351712 47.878185599999995 498.86265599999996
10.2847104 48.463048799999996 498.947976
11.2274136 49.122504 497.851344
5.852623680000001 49.94701920000001 494.588592
2.19679992 49.2571656 495.93751199999997
3.9868545600000003 49.9553136 494.574336
10.4894712 50.5673712 494.831736
10.252296 50.030747999999996 495.794736
3.5361287999999997 47.0691504 499.527864
3.0756491999999995 48.7407024 496.577952
2.9889237600000005 50.297688 493.755624
5.14152072 50.8293504 493.34421599999996
8.9698104 50.1961824 495.01648800000004
6.8130396 49.64167440000001 495.233136
7.04121912 51.041123999999996 493.248528
11.992190399999998 48.607077600000004 498.819384
3.77057592 48.1707216 497.30551199999996
4.32082656 47.6226792 498.118248
5.3707068 48.994315199999996 496.407384
8.0264232 49.1701608 496.259064
8.125055999999999 48.3417576 497.59257599999995
6.14530656 47.584101600000004 498.547944
6.393668399999999 60.247771199999995 475.61198400000006
0.44592897600000003 61.2861552 473.095728
3.81869568 63.7737912 469.366848
5.612903279999999 64.425888 470.760192
2.157714 61.3280952 473.630184
2.70820944 62.2043928 472.262904
3.52877472 61.6118616 473.487552
4.39573752 61.3139112 474.29085599999996
4.51946376 61.9642368 473.41058400000003
5.18980608 60.664860000000004 475.06233599999996
5.53189248 59.6371104 476.41284
4.1513623200000005 59.0644944 477.604368
1.4200776 59.9230944 475.751016
5.703503759999999 62.62194960000001 471.598056
2.8106848799999997 63.7255008 469.882584
8.9859456 63.72385920000001 471.72765599999997
9.9555264 63.452124 470.855016
10.9981872 63.8867016 470.70194399999997
6.1339464 63.377978399999996 471.250728
5.24997864 62.8486776 470.4624
2.91682152 64.8733752 467.790624
6.4131156 65.175192 469.26849599999997
4.056883200000001 63.1645416 470.085336
3.89589768 62.4725928 472.386024
52.3670328 65.65957200000001 475.53609600000004
51.5054088 65.2279896 476.490456
8.712576 64.0297944 470.563128
9.726012 64.5417936 469.95148800000004
8.007343200000001 63.9987408 471.476736
29.167675199999998 55.7679456 487.20167999999995
41.502088799999996 63.6931656 476.455536
42.2253288 62.7078384 478.67364000000003
43.5886704 63.74250000000001 476.843544
46.9197288 63.3990384 479.533752
47.985803999999995 64.0320768 478.517472
44.1679392 63.038484000000004 478.698264
45.380476800000004 63.879984 477.192024
48.1786632 64.7146152 476.587512
46.81566 64.0183824 477.773784
45.0542376 64.7688384 475.07378400000005
45.6520824 63.2925288 479.016936
39.403857599999995 63.386344799999996 476.36467200000004
40.3256592 64.8247248 473.605056
39.1917456 62.0172792 479.05307999999997
39.2658336 61.4138328 480.33648
40.5882504 62.023017599999996 479.732328
36.8437608 61.9999488 478.23307200000005
35.7733512 63.0161208 476.12448
38.1309768 62.1244656 478.415448
38.0118312 61.5060648 479.46708
38.9455416 62.558856 477.874872
38.1177216 60.924290400000004 480.561768
44.2869624 54.0097128 484.91791199999994
45.6562152 55.179388800000005 485.32111199999997
36.548791200000004 61.0404768 479.913696
34.8406416 61.945956 477.96515999999997
32.2970976 61.8640488 477.686664
34.349256000000004 60.924873600000005 479.91765599999997
35.941572 60.2763264 481.511592
32.393253599999994 53.3514528 484.75346400000006
31.6629144 57.565792800000004 484.45473599999997
42.620832 60.53922 483.51484800000003
41.2664184 60.1975008 483.98788799999994
39.8237832 59.59602 484.83648
42.5158632 59.723791199999994 484.492752
37.5120504 63.999907199999996 474.605424
40.576248 59.677272 484.68434399999995
37.9434456 55.54023839999999 484.816104
66.3657768 60.4460304 486.22384800000003
68.4500688 59.8230864 487.270152
67.2666768 60.26992559999999 486.55490399999996
68.5227672 61.712647200000006 483.33031199999994
64.73582640000001 63.1104408 480.623688
66.8856528 60.9209928 485.509248
63.625723199999996 66.9609 472.917024
65.82327839999999 63.358200000000004 480.335472
67.4416944 62.0032896 482.947848
66.4796376 61.8793632 483.270408
65.6822448 62.94825360000001 481.39466400000003
67.8102552 62.4210768 482.024952
69.0975864 60.833923199999994 485.0064
69.2953344 60.117048 486.582552
69.9917976 59.079312 488.45505599999996
65.4993576 62.298468 482.517144
64.5308928 61.85367360000001 482.9706
64.242756 62.351042400000004 481.86554399999994
65.9036376 66.73185360000001 473.71211999999997
60.38686800000001 67.85349839999999 471.994704
61.305372 67.8445488 471.77812800000004
62.2421352 67.2878232 472.536504
62.728164 66.5978904 473.698224
61.4548944 66.74378399999999 473.50814399999996
59.2484112 69.4695096 469.02743999999996
59.452351199999995 70.2273168 468.13428
60.177636 66.72877199999999 473.408928
60.780528000000004 66.2544504 474.242472
52.6277016 65.29079519999999 476.55648
57.2988312 69.7658184 467.87061600000004
56.5443072 69.0955632 468.47375999999997
57.7516968 69.2402688 468.80503200000004
58.9759416 70.7681304 467.472096
56.3210712 69.5542536 467.671968
61.972919999999995 69.2672616 469.667736
58.452501600000005 69.9646032 468.090072
59.6837952 68.7165696 470.38111200000003
58.3826184 68.0729544 471.090456
59.5319688 68.0557392 471.619296
62.8686648 69.546456 469.247472
60.4538784 70.1957592 468.50104799999997
63.0287424 68.7996072 469.792008
66.625812 67.2955488 472.836816
66.8302848 66.5965872 474.54285600000003
62.175924 68.5431936 470.41372800000005
63.351381599999996 67.4603208 471.706632
63.168991199999994 68.0326632 470.59596
60.7296456 69.4501416 469.451304
64.4271624 65.5697088 475.840296
63.1063296 66.035232 474.66338399999995
61.935336 66.17484 474.369696
65.1293568 65.33381519999999 476.44149600000003
64.7805384 64.7480736 477.566424
62.222155199999996 65.660004 475.2324
61.166736 65.3719104 475.616304
63.3964536 65.52283680000001 475.612848
62.744277600000004 64.48338 477.277704
63.796658400000005 65.0427408 476.7102
67.87241999999999 63.6544512 479.8134
67.04294399999999 64.4774544 478.317672
69.5882952 62.9525304 481.02782399999995
68.88613679999999 62.261611200000004 482.212008
67.2780312 65.3323752 476.817768
21.1871376 63.3359592 472.865616
20.4484824 63.9479592 471.52159199999994
55.978732799999996 64.9841544 477.131328
22.849956000000002 63.0165168 473.708952
23.665183199999998 63.8785512 471.95128800000003
20.2140144 60.2344728 479.196288
23.4421992 61.735197600000006 476.651088
21.4669728 62.647135199999994 474.377688
54.7051752 64.55867040000001 478.770624
54.570384000000004 64.9333872 477.48564
19.574733600000002 60.8476896 477.64591199999995
17.6536728 61.945646399999994 475.044552
18.6841584 61.6333032 475.94383200000004
12.501590400000001 65.2210848 469.17684
50.5161504 64.7545032 477.56167200000004
30.045693599999996 65.1963744 470.278368
29.069747999999997 64.35198 471.72211200000004
26.8142472 66.0164112 467.603784
29.5181496 61.5565872 477.811152
29.7022248 63.088912799999996 474.538176
20.4337296 61.88860079999999 475.82135999999997
26.9450208 60.966252 478.761408
29.9522952 60.1723584 480.72708
24.828444 60.310497600000005 480.167352
21.8536704 63.7612992 471.95856000000003
21.6175104 64.5472152 470.253528
19.741716 64.62306 470.026512
19.813212 63.108014399999995 473.141376
55.117908 65.3065128 476.18388
53.818344 65.3345856 476.40506400000004
53.193996000000006 64.89787679999999 477.54554399999995
11.5857504 64.8886248 470.323584
49.7759112 64.3733352 478.56924
50.482173599999996 65.2592952 476.213616
49.55696639999999 65.3308488 475.599888
49.281264 64.6484976 477.492984
49.43934720000001 66.165408 473.166144
50.526936 66.52999439999999 472.68036
44.7705576 65.7268848 472.818312
47.9276208 67.5817704 469.91260800000003
48.7163376 65.5156368 474.589224
49.6869984 66.7451448 471.944016
52.73604 66.5988984 473.17600799999997
52.2513432 66.0450024 474.433056
53.1623376 65.9058696 474.93216
56.036736000000005 70.3316376 465.718536
54.971748000000005 70.3680264 464.861088
53.9998704 70.619472 464.319072
55.033862400000004 70.9505352 463.772664
33.295356 68.8549896 464.61225599999995
32.321505599999995 69.3445896 463.976424
46.535068800000005 67.207644 470.130264
30.909686400000002 73.006776 454.605048
-3.98363256 74.79655199999999 446.408136
-0.49962088800000004 75.4506 446.14116
20.574252 73.891872 451.475496
19.383098399999998 73.193184 453.040128
32.1410448 73.22205600000001 454.47228
41.785128 72.224784 457.39512
42.744204 72.257256 457.834392
47.7373824 74.199528 454.942656
34.027271999999996 73.563552 453.73766399999994
46.4070888 74.30896800000001 454.32396
46.9113768 74.166624 454.914432
54.297633600000005 71.9212608 461.41984799999994
54.0903456 72.99381600000001 459.51285599999994
53.033968800000004 72.719496 459.384912
32.0719968 72.221688 456.070608
32.8520304 72.020088 456.652872
32.2051896 72.768744 455.305968
14.268564 71.659836 456.134544
14.205290399999999 72.970488 453.187368
27.0601056 73.235448 453.89210399999996
29.3548464 73.026288 454.750488
23.809183199999996 72.418104 455.508504
25.9054992 71.9661816 456.68541600000003
27.2910672 72.26301600000001 456.530256
28.1373192 71.9358336 457.31699999999995
24.6436416 71.5904496 457.03692
25.0283952 71.0825976 458.027424
23.645267999999998 71.22149280000001 457.69953599999997
12.501021600000001 70.6527936 458.67153600000006
16.792632 71.03218319999999 458.70768000000004
16.8914376 73.217376 453.02544
20.2895568 71.11548 458.70408000000003
21.5257392 71.42436 457.417368
22.740969599999996 70.9279992 458.651232
20.2607712 72.07963199999999 455.923512
32.418928799999996 71.1431496 460.44432
31.241714400000003 71.045532 460.57694399999997
18.941508 68.7008592 463.223952
6.62552496 69.616836 460.53784800000005
12.1475664 68.8823856 461.944944
20.550240000000002 69.81433200000001 461.422584
15.0727752 68.73869520000001 462.357504
12.933424800000001 68.2658208 462.95812800000004
20.2441896 69.2137728 462.381984
19.2977064 70.358364 460.295712
21.901298399999998 70.759188 459.813816
21.5018352 70.30897920000001 460.703592
30.251570400000002 70.888356 460.72533599999997
34.898652 71.3246688 459.57160799999997
36.6178752 71.3714976 459.911664
51.424437600000005 72.256752 459.97632
33.3691416 70.8759 461.16590399999995
32.146704 70.6864896 461.45008800000005
37.518890400000004 71.6728032 459.086544
33.7591872 72.093672 456.945048
34.3498176 71.7332688 458.057592
50.460170399999996 72.309816 459.39376799999997
49.9632768 73.067328 456.781608
45.78282720000001 72.397584 458.45827199999997
48.4195536 74.07504 455.32908
50.146041600000004 73.71432 455.679576
53.6861808 72.33256800000001 460.391184
48.6246816 74.46535200000001 454.485096
50.1832368 72.621 458.221464
55.0962432 72.998856 459.77205599999996
53.2228248 73.330128 458.374104
47.8107648 72.020808 459.614736
41.5051704 72.063504 458.531064
40.430649599999995 71.9928 459.412272
48.424154400000006 71.6483088 460.918296
49.137940799999996 72.205056 459.27698399999997
44.9247312 66.72250079999999 470.551824
42.8766696 65.9351376 471.68013599999995
40.7052504 67.47119280000001 467.175888
40.8821112 68.1694632 465.106824
42.582204 68.0820408 466.03332
57.8903616 71.8080552 463.26196799999997
55.924056 72.629568 460.72792799999996
55.8930168 73.424304 459.84484799999996
51.0232752 73.58292 456.35781599999996
53.1587808 73.938024 457.153704
52.139311199999995 73.479384 457.277616
57.4641288 72.262656 462.268584
56.640815999999994 72.081216 461.70849599999997
55.51172639999999 71.968536 461.49364799999995
38.116008 68.3203824 463.899744
40.4570664 66.38661359999999 470.014416
39.632436 68.4205992 463.98002399999996
51.8009256 71.7878592 461.16979200000003
52.5660048 72.13068 460.22688
58.2698088 72.97308 462.548736
53.019036 71.23451039999999 463.027176
53.6134536 71.523612 462.31956
60.186837600000004 72.43056 464.82048000000003
59.5089936 72.1476 464.778432
61.919496 71.9239968 466.51010399999996
57.1107096 70.968204 465.011784
56.0955744 71.278812 463.235184
57.105108 71.3070072 463.841424
54.4959072 69.8147568 465.992496
53.0134344 70.4148552 464.895216
53.0352072 70.857972 463.87872
52.0839504 70.687584 464.36904
37.9962504 67.05412559999999 467.92692000000005
58.770374399999994 72.035496 464.029416
56.842560000000006 70.17186960000001 466.85973599999994
51.1730352 70.95654 463.791024
51.985548 70.21495440000001 465.38690399999996
58.955860799999996 71.636364 465.476472
49.579675200000004 71.265564 462.177648
57.727116 70.6862304 466.450056
51.0602184 71.4867048 462.460896
52.4325528 71.5792824 462.307248
37.1743848 68.071572 464.766768
45.667548000000004 67.61280239999999 468.737208
36.9749016 67.6170144 466.06485599999996
36.1401768 68.4375264 464.14663199999995
36.1917216 68.0029488 465.111072
34.4260296 68.3291448 465.25356
35.2535832 68.4045864 464.656464
36.1866816 67.3841376 466.977168
35.572636800000005 66.91299120000001 468.205992
34.8063696 67.6715472 466.53911999999997
33.6312432 68.1754392 465.73912800000005
41.107406399999995 68.8684176 463.751208
42.402700800000005 68.7659472 464.473872
43.62138 68.70235679999999 465.088896
43.7615496 69.6178944 463.974336
45.2132064 68.012568 467.357904
44.307108 68.2849944 466.289064
32.2634304 68.50948319999999 465.242112
33.550927200000004 67.47803280000001 466.98732
28.4099472 67.5227088 465.33160799999996
28.768068000000003 68.0958576 464.45904
26.896622400000002 67.3934688 465.039
31.8838248 69.9992208 462.70548
29.696119200000002 67.9059432 465.33088799999996
29.4111216 68.6166336 464.116752
33.6398688 66.2560992 469.39924799999994
34.4376504 64.53732959999999 472.957848
32.1427368 65.2864824 470.828952
30.6357192 68.6006856 464.796
29.51856 66.985704 466.74432
26.3283192 66.674988 466.164432
11.6478864 67.51097999999999 464.988888
12.1737168 67.84713359999999 463.931856
14.5634472 68.1493392 463.6008
10.5844752 65.9617128 469.4166
11.756563199999999 66.2095296 468.187488
15.93576 67.9649328 464.46811199999996
16.782055200000002 67.6794384 465.21532800000006
15.232536 67.3827984 465.592176
13.1887512 67.151664 465.612336
14.1281352 66.70392480000001 466.42672799999997
23.716627199999998 64.8466056 469.72439999999995
23.5059624 65.6113824 467.761176
24.896901599999996 66.2455008 466.70464799999996
26.4362472 64.2037896 471.57156
21.981319199999998 65.29633919999999 468.41529599999996
20.4124464 65.2361544 468.72784799999994
13.0448448 66.2609016 467.185752
14.6214216 66.053448 467.367264
11.2096008 66.77960399999999 467.010792
8.3705112 65.6172576 469.115424
6.37330968 66.024216 468.20484000000005
6.436711440000001 67.5120024 467.1666
11.2825512 67.0979664 465.91984800000006
9.1520136 67.62173039999999 466.655112
14.03766 54.1919592 488.57651999999996
13.759682399999999 54.5363064 487.74672
14.8118832 54.699732 487.773072
51.2534304 54.2173176 484.46171999999996
45.6025824 57.3837192 486.00359999999995
44.5825944 57.924424800000004 486.264168
27.0642312 57.883751999999994 485.41428
29.1341376 55.2076056 488.34446399999996
58.8351096 57.3960024 490.522536
24.7381416 53.2900008 492.023232
64.6738128 51.680505600000004 494.51385600000003
70.4950272 18.23778 482.60260800000003
69.3568368 19.7328456 481.556304
70.09974 20.3699376 484.72632000000004
68.8037544 57.9398544 490.193208
69.84498239999999 57.0876408 492.1416
68.62942079999999 57.274459199999995 491.332896
56.9898144 56.545308 488.872008
40.231404 55.1682504 485.269992
39.3573744 56.115892800000005 485.499528
55.8946008 55.3221 487.83060000000006
65.2673376 49.6863072 493.54524000000004
64.3851432 49.239813600000005 492.670368
64.27580400000001 50.233060800000004 493.219224
53.1546264 55.29281039999999 484.269408
43.722259199999996 55.468008 485.584776
42.4294488 55.154591999999994 485.457984
41.7763008 54.431812799999996 485.00798399999996
41.4443088 55.2860208 485.50975199999993
57.9789072 58.3282728 489.23604
58.139748000000004 57.6772992 490.00788
20.7823896 59.870455199999995 480.438936
26.674761600000004 58.586781599999995 484.018776
28.2920184 58.1094 484.554384
41.0075928 56.4584112 485.97947999999997
30.1317624 55.4700672 486.45525599999996
29.315592 56.4456816 486.23436000000004
30.7541952 58.9013064 482.97887999999995
32.249152800000005 59.6017584 482.172624
46.491192000000005 56.4662952 485.588592
44.9263512 56.512656 485.919576
45.5443416 58.35700799999999 485.848152
44.4675096 58.764304800000005 485.495136
42.5799144 58.8345264 485.16019200000005
43.299921600000005 58.30786079999999 486.05313599999994
50.217789599999996 56.8389024 484.857144
49.423464 57.5950176 484.93598399999996
69.4880568 32.87358 486.51127199999996
50.2043688 53.1578016 485.0046
49.9368312 51.696648 485.31736800000004
49.132008000000006 56.5916832 485.08790400000004
56.288354399999996 44.8383096 484.98674400000004
55.6217496 43.532251200000005 483.07075199999997
49.880764799999994 55.9573992 484.73935200000005
51.6326256 54.993708 484.203456
48.990823199999994 55.5465528 484.8678
30.4461144 56.2899528 485.64777599999996
29.539245599999997 57.2314536 485.27359199999995
29.860200000000003 58.04184959999999 484.12944000000005
25.284132 58.538743200000006 483.96707999999995
25.3728072 59.2239888 482.58770400000003
33.6116016 59.2354296 483.16269600000004
23.423140800000002 59.634100800000006 481.535784
22.588739999999998 59.048424000000004 482.587416
20.911968 59.2933824 481.789224
21.8961 59.5932912 481.298904
37.283184 12.4110432 461.254968
39.3304464 12.900923999999998 460.71756
35.944668 14.190588000000002 462.52533600000004
35.754156 13.1490648 462.095136
35.462116800000004 33.1115112 472.07541599999996
34.4275344 33.6241368 473.380272
36.265586400000004 33.749294400000004 472.963104
33.2446608 32.4123912 474.03288000000003
33.2457768 33.076857600000004 475.17026400000003
34.9334784 13.829126400000002 463.313448
35.5217256 15.347916 463.49006399999996
38.0307024 10.0440144 465.449904
39.490236 10.7184024 464.131368
35.056619999999995 16.7791104 464.577984
36.1084608 16.5101904 463.55997600000006
35.767519199999995 9.273830400000001 466.655544
34.158708000000004 9.329075999999999 466.769664
33.598432800000005 11.63952 463.727952
38.9193336 22.988052 466.45459200000005
36.2290824 21.440008799999998 465.88788
35.924652 24.4775952 467.479656
33.633036 13.807591200000001 464.433984
34.0515576 12.587673599999999 463.48567199999997
31.754915999999998 11.5647912 465.033816
30.8281752 11.974752 466.03555199999994
31.7231136 12.7046016 465.381504
28.8277344 8.5040208 466.97047200000003
29.8278432 10.3731264 466.72516799999994
36.921657599999996 18.8634096 464.38538400000004
34.6494312 19.0232352 465.740208
32.1909912 31.0853808 474.532128
33.514509600000004 31.338727199999997 473.00227199999995
37.1228976 38.0292048 475.37431200000003
37.7824248 36.6286464 475.28784
37.9581696 29.1286872 470.246904
35.1526536 30.018563999999998 470.54268
36.526881599999996 30.3911424 470.589192
32.1542352 18.144928800000002 468.20772000000005
31.076510399999997 13.663836 466.369272
30.239683199999998 15.0664824 468.270432
32.358866400000004 13.8677832 465.305112
24.146164799999998 1.14973848 480.47925599999996
25.4211984 0.233556984 482.21726399999994
32.874861599999996 12.4208496 464.596992
33.4890072 16.6800168 465.743088
33.0654672 15.066806399999999 465.143256
31.2538464 31.148712 476.177904
30.3723288 30.731364 477.992808
31.697539199999998 32.3164152 476.852688
33.146114399999995 33.609528000000005 476.514432
33.931663199999996 28.4185944 471.035376
