# .PCD v0.7 - Point Cloud Data file format
VERSION 0.7
FIELDS x y z
SIZE 4 4 4
TYPE F F F
COUNT 1 1 1
WIDTH 1199
HEIGHT 1
VIEWPOINT 0 0 0 1 0 0 0
POINTS 1199
DATA ascii
71.6375376 29.319235199999998 439.242264
71.7811704 30.372832799999998 440.056008
71.557128 28.5894432 439.813008
69.431832 25.3809936 443.24539200000004
71.0972136 27.458956800000003 439.84778400000005
71.1080784 27.413179200000002 439.58836799999995
70.1344944 32.5308384 441.32176799999996
70.45156800000001 32.1171048 441.344088
70.3780272 32.3496288 441.88524
69.8021856 52.404731999999996 440.66620800000004
72.95529599999999 52.4952432 441.65152800000004
73.09008 52.64808479999999 441.35560799999996
70.04560319999999 52.3038888 441.279576
71.1491976 30.2374872 443.468448
69.165144 25.5306816 444.7314
69.39977040000001 25.5798792 444.41683199999994
70.724628 31.763448 441.572112
70.5308184 31.961736000000002 443.89094400000005
70.621596 31.516754400000003 443.65399199999996
69.5489904 33.4152144 442.00404000000003
69.5300328 33.2482032 440.994744
71.116704 30.9552264 442.634112
70.149132 32.912136000000004 442.24084799999997
70.1891496 26.1739584 443.64585600000004
71.03498400000001 26.4472344 443.525328
70.7757336 26.2902888 443.333592
70.705764 26.3740968 443.635992
69.9418584 29.599927200000003 445.220352
70.7207616 29.5140384 444.34368
70.8432624 29.6678088 444.141072
70.9577064 31.406623200000002 441.782496
70.781328 31.7363688 442.15524000000005
70.30262160000001 30.4155504 444.431016
70.195824 30.930127199999998 444.36808799999994
70.590132 29.921342399999997 444.325968
71.10900000000001 29.6211168 443.86668000000003
70.851384 29.976595200000002 444.00333600000005
69.814728 25.157628 441.89344800000003
70.271604 26.690889600000002 444.315456
70.831008 31.562236799999997 443.23128
70.765668 27.3276792 444.223728
69.9126984 27.7850088 445.27975200000003
70.4375496 36.934020000000004 465.376896
71.824716 28.498968 443.49933599999997
70.7705928 31.206319200000003 443.412864
70.6548096 31.0835592 443.68956000000003
71.0435808 31.2235344 442.285272
70.3920528 31.216824 444.045096
71.6047416 30.2034816 442.64930400000003
72.00395999999999 29.4301656 442.439856
70.8562656 31.587192 442.728432
69.2878752 26.036524800000002 445.340664
69.2594568 25.8532704 445.059
70.3205712 27.355219199999997 444.596256
66.87162 26.813764799999998 460.18224
66.6175032 26.2999008 460.04846399999997
70.0693416 27.2835864 444.84105600000004
69.52845599999999 25.7543352 444.44952
70.4584296 26.333870400000002 443.71598400000005
70.876872 26.3180304 443.00678400000004
71.0542152 26.3550744 443.247552
70.19223840000001 31.6444608 444.3336
70.2527976 36.606996 464.976216
70.07921999999999 31.3842744 444.44498400000003
70.4194128 32.7353976 442.595304
70.4532816 32.568825600000004 442.28592
66.746664 33.9629904 459.831888
66.6713736 34.1139024 459.599112
70.1512488 29.1539952 445.14820799999995
68.0967216 33.9296112 443.15891999999997
69.26119200000001 33.6878928 442.891008
69.8585904 31.400964 444.74184
70.48195199999999 50.702544 443.79864000000003
70.017696 32.3939232 444.81744
69.5029392 33.519059999999996 442.202904
69.1111008 31.4917632 445.551408
71.963028 51.7131576 444.22272
69.5883456 50.6647368 443.379528
67.87062 28.5627456 446.679144
69.861456 27.3901536 445.178304
70.1201016 28.409918400000002 445.25757600000003
70.9883928 31.2335424 442.6866
68.520132 50.1815088 444.700872
69.9752304 49.1746896 446.90652
70.0079616 49.352148 446.47084800000005
69.7130712 49.1952096 446.66798400000005
66.2182056 34.399267200000004 445.712328
69.6801888 27.089172 445.337712
70.01236800000001 26.9312976 444.772584
69.4947456 25.8926688 444.704904
69.1419384 29.066407199999997 445.975992
69.71548320000001 26.090431199999998 444.521016
69.913872 26.3016 444.40596
70.0936128 28.0939464 445.16570400000006
70.308324 27.862876800000002 444.70828800000004
68.8147704 31.362429600000002 445.93747199999996
69.96716640000001 25.9629768 442.983888
69.8989752 25.9204104 443.1906
69.7557528 25.7928264 443.041632
71.09772480000001 29.969531999999997 443.72404800000004
69.8508216 27.038044799999998 445.03596
69.694812 26.8033968 445.159728
71.6355648 26.80434 443.509632
70.0803288 28.769990399999998 445.33476
69.8829624 29.174724 445.445208
69.2479872 25.9835328 445.94503199999997
69.1445952 25.7458968 445.742784
72.25668 27.515736 443.131344
72.0954 27.3557736 443.286432
72.244152 27.3453048 443.01952800000004
71.15446080000001 26.6628744 443.7288
71.9068176 29.0893824 443.035368
71.4266928 29.098072799999997 443.75428800000003
69.3301752 27.320543999999998 446.163048
69.1244712 27.597384 446.36148
69.1502112 27.0871776 446.44687200000004
70.8921792 26.5502736 443.75868
72.24516 28.8198144 442.452672
70.35173999999999 32.4828432 444.104712
71.0629488 27.5115816 444.095424
71.9597952 27.030787200000002 442.7262
68.8449888 31.8216384 463.93092
70.67482559999999 32.2284312 442.559808
71.3065176 30.951655199999998 441.61747199999996
71.4125808 29.739499199999997 443.378448
71.4049488 30.6614304 442.260288
71.6416128 26.9088696 442.34035199999994
71.6694192 26.9616672 442.14199199999996
71.50772160000001 26.6424552 443.47751999999997
70.6498128 26.2509048 440.958456
70.7738688 26.4547008 440.79026400000004
70.5211128 26.1725688 440.54920799999996
70.3877112 25.8831216 441.130536
70.4633616 26.217734399999998 443.446488
70.1590104 26.0777952 443.245104
71.4848472 27.1886472 443.80872
69.68993760000001 25.5093192 442.68552
69.58489680000001 25.5161448 442.941696
71.32224240000001 27.3387528 443.922408
71.0240112 27.144770400000002 444.00636000000003
70.9452072 26.811007200000002 443.893248
69.1107552 25.078356000000003 443.71130400000004
68.995656 25.5406392 446.97563999999994
69.1895448 25.809199200000002 446.834808
67.1000256 23.628578400000002 441.255888
71.3130984 26.5704408 443.561616
71.0647488 26.4133728 442.75161599999996
69.390252 26.724024 445.814712
68.7732696 25.232464800000002 447.22015200000004
68.9256144 25.1372736 447.02985599999994
68.7855456 24.900566400000002 447.17875200000003
69.11658 25.7682888 445.37507999999997
69.2419608 26.0278128 445.623984
69.3126504 24.476032800000002 441.10944
69.7379976 25.783991999999998 443.30824800000005
69.5987136 25.613848800000003 443.173104
66.8639088 29.139933600000003 446.900544
67.238568 28.803816 446.852664
66.7724184 29.3878008 446.94633600000003
67.5901872 29.190528 446.67388800000003
70.9442064 26.4094272 442.451088
70.11838800000001 26.2676664 443.933136
69.0411168 28.3418856 446.231448
69.0661656 25.628882400000002 445.07102399999997
68.927868 25.491758400000002 445.2552
67.8490488 24.8071824 447.611184
67.92354 29.2976208 446.492448
66.414528 25.7925816 458.232264
66.3822288 25.939533599999997 457.85088
69.06456 24.3427536 442.571112
67.9263912 24.1510248 440.84952000000004
68.516388 24.232269600000002 443.876472
68.6730096 24.330729599999998 443.57759999999996
68.08082399999999 23.1175872 444.82392
68.1057792 23.044399199999997 445.182624
67.56332400000001 23.133830399999997 443.276064
67.9964328 23.583232799999998 443.52777599999996
69.00423119999999 24.4827576 440.604144
68.93002800000001 24.605013600000003 440.28086399999995
68.0460912 24.4269072 440.30879999999996
70.1503056 25.5605184 440.812584
68.4058824 23.9820624 442.95739199999997
67.3352928 23.1411096 442.72684799999996
67.46675760000001 23.157439200000002 442.935792
67.53148560000001 23.280242400000002 442.787112
69.0909336 24.3921888 440.883072
67.8183768 23.004590399999998 444.20637600000003
67.9294368 22.903797599999997 444.600072
67.7361384 22.702679999999997 444.41711999999995
68.6221848 24.5526696 440.123328
67.8529008 22.4818272 444.999888
70.0021152 25.319872800000002 441.05889599999995
67.6854216 23.4625896 442.731888
69.76275120000001 24.9652872 441.08704800000004
70.0659072 25.4704896 441.628056
69.9943392 25.479115200000003 442.05768
68.7720888 28.0764864 446.44507200000004
67.0145184 23.6561904 440.988336
67.1053032 23.8205664 440.67312
66.85971119999999 23.6201184 440.67456000000004
63.0390384 23.388336 438.217128
63.2989152 23.181609599999998 438.98061600000005
62.961184800000005 22.8912408 439.14304799999996
63.377697600000005 22.8597264 439.368768
63.81174959999999 23.880412800000002 438.15024
63.320932799999994 21.388068 441.406296
63.5662944 21.1604256 441.829224
60.5981592 21.8326824 438.39648
62.6891904 23.4633456 437.60138400000005
62.223775200000006 23.6051712 436.92026400000003
65.837124 23.7224232 438.921
65.36514240000001 23.630795999999997 438.934104
62.1110952 24.344467200000004 435.865608
62.502955199999995 23.08842 438.14484
63.001065600000004 23.246431200000004 438.56424000000004
60.629320799999995 33.2476992 449.36344799999995
60.5433816 32.9409144 449.156016
65.9331576 23.5807992 439.224336
64.6242264 22.3560792 440.57397599999996
64.842264 22.5411264 440.5698
70.811964 26.4622392 441.071568
64.7441352 22.8075192 440.24623199999996
68.9858064 24.1722144 441.75844800000004
69.3032256 24.4825776 442.368216
67.9889736 23.520815999999996 443.8278
68.1384024 23.725504800000003 444.047616
68.0973336 23.7248496 443.71692
68.02416000000001 23.240145599999998 444.47047200000003
67.5605664 23.161320000000003 443.078424
67.6897848 23.342997599999997 443.030688
68.3409528 24.0283368 444.06928800000003
68.2197192 23.8745376 443.77883999999995
63.3759264 19.597644 444.04293599999994
63.86507279999999 19.8839952 444.020832
63.204336 19.9269936 443.545776
66.6938376 22.631688 442.802016
67.9933224 23.3943048 444.129408
67.8061224 23.3664552 443.386296
68.4940104 24.0151896 441.94823999999994
66.3858864 22.863168 441.940248
66.47826239999999 22.819932 442.223712
67.44357360000001 23.0563008 443.08512
65.46009600000001 24.4538784 448.277904
65.2110048 24.52104 448.411896
65.3043024 24.269508 448.317
66.7456056 22.9872456 442.270584
67.9771224 22.7690856 444.98318400000005
65.2879944 21.9482928 442.056096
67.4635896 23.3451288 442.57824
65.8036728 22.745858400000003 441.492552
64.8189072 21.1922568 443.000088
64.8665424 21.295677599999998 442.72972799999997
67.9468752 23.830848 441.899064
68.265504 23.9685048 441.777816
66.244932 23.1517152 440.98387199999996
65.7070272 22.6160568 441.7002
66.519108 23.1750576 441.20361599999995
65.6013744 21.427322399999998 443.447136
65.4572304 21.490056 443.15805600000004
64.7051616 23.659092 438.956784
64.9636488 23.5738224 439.09358399999996
68.732028 24.515136 443.67408
65.5407792 21.7090368 442.86602400000004
64.166544 20.9151144 442.69545600000004
64.5630264 21.1290696 442.70964
64.3233816 21.1579776 442.331208
66.6566784 22.800902400000002 442.48694400000005
64.83812400000001 21.4523856 442.29031200000003
65.9243304 21.5442072 443.504232
66.8019096 22.79466 442.64102399999996
65.7820368 21.36708 443.719728
65.6112888 21.1550472 443.974464
65.909268 21.2935536 443.93997599999994
64.8521208 27.132818399999998 448.27308000000005
64.610172 25.6449456 448.849584
63.130824000000004 27.1413 449.51688
66.7409328 21.500157599999998 444.713328
65.16321119999999 21.2432616 443.370888
67.6220328 22.2593328 444.829176
67.5874152 22.0540176 445.05251999999996
65.5404624 25.7745312 448.34263200000004
65.471832 25.3284408 448.4448
68.0118552 27.963863999999997 446.80716
66.4504488 20.9100456 445.405392
64.3942872 19.8702072 445.20530399999996
64.1788632 19.6589016 445.35168
64.3443624 23.267635199999997 439.63524
64.033416 23.1565896 439.473024
66.8941128 21.0629952 445.54867199999995
67.78640879999999 22.581324000000002 444.71052
68.5833768 24.5453184 445.600152
69.3146448 26.9289504 446.161968
68.2407504 23.624114399999996 444.908448
68.142708 23.442127199999998 444.694968
68.1270408 23.1806376 445.469256
67.5298656 22.411692000000002 444.46175999999997
68.11900560000001 23.5771416 444.387816
68.9431392 25.015895999999998 446.06721600000003
68.9351112 25.212081599999998 445.81032
68.33988 24.0319584 445.670424
68.474916 24.2772984 445.82846400000005
68.4840672 24.3363096 445.39452
67.8833496 23.381604000000003 443.647872
66.33186479999999 22.920227999999998 441.65556
65.49462720000001 20.66706 444.5496
65.4732 21.2603832 443.67091200000004
66.4849656 21.39066 444.48012
64.73238479999999 20.872008 443.59790399999997
65.05382879999999 20.296872 444.85488000000004
64.8909216 20.310645599999997 444.59632799999997
64.66263839999999 20.357532 444.270528
64.2997872 20.0804472 444.24576
65.852712 21.0267288 444.34116
65.2249368 20.4422472 444.67682399999995
61.7344344 19.4406264 443.61532800000003
64.3682952 20.411618400000002 443.85753600000004
65.4286104 19.41318 446.80305599999997
65.4184296 19.5407856 446.50548000000003
65.6818848 19.5964344 446.758848
64.77739199999999 20.163888 444.89973599999996
64.6902 20.069380799999998 445.175784
64.1072016 19.7271504 444.784824
61.146374400000006 19.2629376 443.652192
61.0084872 19.0327104 444.022056
60.816815999999996 19.1870496 443.65536
61.356002399999994 19.1113416 443.95416
61.3141776 18.923256000000002 444.31437600000004
64.1654784 20.683180800000002 443.21076
63.8349696 20.212041600000003 443.53324799999996
64.58112 19.9711296 445.378248
63.659455200000004 20.7078984 442.608336
63.393444 20.3475744 443.036448
63.3497616 19.1015136 445.464504
63.1837512 18.9458496 445.559976
63.1166112 18.9786744 445.29112799999996
61.695799199999996 18.6816312 444.842712
61.3741752 19.5101568 443.392128
60.914426399999996 19.475244 443.238264
63.6207336 19.180094399999998 445.64868
63.832860000000004 19.3656312 445.56847200000004
63.7440048 19.133373600000002 445.853592
61.9603128 18.880164 444.55248
62.5808952 18.2439 446.21200799999997
59.600484 17.6146416 445.45845599999996
61.486300799999995 17.8051608 446.05447200000003
61.19434079999999 17.7697152 445.96245600000003
61.5303216 18.420336 445.17664800000006
61.830230400000005 18.4583232 445.201272
61.608974399999994 18.2899368 445.37558400000006
60.270875999999994 19.358431200000002 443.00685599999997
61.912389600000004 18.992411999999998 444.348072
62.2645776 19.0061784 444.474576
61.988695199999995 19.1288088 444.142224
60.518325600000004 18.743832 444.314952
61.648833599999996 19.0309464 444.18456
61.6649112 18.8799048 444.46644
61.4068344 18.7802424 444.613248
63.685332 19.606175999999998 444.256632
62.8086384 19.1001312 444.62671199999994
60.0973632 19.8588528 441.97279199999997
60.3672048 19.8140256 442.16352
61.090970399999996 18.7689312 444.57012000000003
60.730416 18.9979992 443.92924800000003
60.733670399999994 19.5511104 442.986912
62.4279024 20.115064800000003 442.863648
61.678195200000005 19.223488800000002 443.90397599999994
60.4204416 19.9764504 441.885312
60.627254400000005 19.8425376 442.234656
60.804432 19.784808 442.53108
60.3544536 20.5002648 440.522784
60.109812 20.556863999999997 440.46972
60.5423736 19.5749928 442.810584
60.7286736 19.9924992 442.004976
60.5327976 19.8799488 442.075104
60.8795352 19.675922399999997 442.85457599999995
61.062084 19.840752000000002 442.68645599999996
61.1287344 19.9494576 442.47657599999997
62.928720000000006 20.623644000000002 442.350648
61.325438399999996 19.9367208 442.6416
62.4771 19.732212 443.485656
61.853832000000004 19.7395704 443.239056
64.4788656 20.978099999999998 442.979352
60.9404184 20.211861600000002 441.590616
60.54768 20.270448 441.267912
61.2976248 19.7367624 442.972584
61.671312 19.9540872 442.81836
63.5490072 21.7077264 440.951544
61.4313432 19.3084416 443.69330399999996
64.68437519999999 21.007944000000002 443.25899999999996
65.585664 22.454143199999997 441.778824
64.5672168 21.381624 442.12010399999997
64.6917984 21.2940072 442.46109599999994
65.08618560000001 20.565835200000002 444.37766400000004
66.0560472 22.8267936 441.582048
66.5158248 23.0711472 441.477864
63.0549648 20.974140000000002 441.80028
62.454520800000004 20.832537600000002 441.68291999999997
62.763516 21.175603199999998 441.348408
63.85752 20.998281600000002 442.24084799999997
63.3955896 20.858889599999998 442.16236799999996
65.0793096 22.251499199999998 441.277488
61.1953416 20.898252 440.32104000000004
62.1399312 21.154118399999998 440.88372
64.4413464 22.6879272 440.15774400000004
66.2503824 22.9944744 441.34545599999996
64.92949200000001 22.397436000000003 440.839728
64.7512488 22.320252 440.7156
64.7749152 22.211748 440.881776
64.918764 22.2316848 441.07351200000005
64.66645439999999 22.042512 441.07898400000005
63.4663728 23.547801600000003 438.525864
64.5411456 22.1517792 440.767872
65.5366104 23.3619768 439.724808
64.7646912 23.1304176 439.959816
64.76721839999999 23.331391200000002 439.71227999999996
65.29649760000001 23.493564 439.270488
64.1231928 21.339288 441.849312
65.0980368 23.163696 439.986024
63.935467200000005 21.7658664 441.082512
66.9522312 23.470955999999997 441.25725600000004
66.7469088 23.391972 441.02275199999997
66.0667176 23.032008 441.136008
67.021056 23.881291199999996 440.27956800000004
66.6173304 23.5938312 440.32600800000006
66.7792656 23.7891024 440.104248
68.6406384 24.065647199999997 441.597384
68.7484584 24.272892000000002 440.85758400000003
68.3322912 24.176066400000003 440.933904
67.79865600000001 29.9105784 434.165904
67.2320232 29.8363536 431.57167200000004
67.1326272 29.5428888 431.81128800000005
68.785236 24.103159199999997 441.98575199999993
68.4387648 24.0788736 441.252792
69.0853536 24.2515224 441.42278400000004
68.4297576 24.3117648 440.672904
69.0259896 24.263856 441.086904
68.5810872 24.1363296 441.055368
68.7528792 24.1534584 441.209016
62.9567136 21.508308 440.920584
67.2063408 23.7794688 441.108504
65.2813848 22.3854768 441.34898400000003
66.868236 23.914144800000003 439.926984
64.583964 23.786517600000003 438.715224
60.7749912 20.371968 441.01548
61.796735999999996 20.6451576 441.52725599999997
64.3451328 21.622406400000003 441.521496
63.323603999999996 22.376304 439.831584
63.6783984 22.496097600000002 439.774992
61.170724799999995 21.1863888 439.727112
60.9574176 21.207535200000002 439.497936
65.018916 23.0004432 440.166456
64.000332 22.040510400000002 440.511696
64.124712 22.2321528 440.316144
60.2644248 22.3002504 437.23893599999997
64.1384064 21.7174032 441.279936
64.1866392 22.7030256 439.94592
57.3836616 29.0154888 457.97868
57.4561296 28.738526399999998 457.840008
61.3351368 30.8587392 460.63036800000003
61.5855528 30.9875904 460.952568
61.6550184 30.6841104 460.695168
63.7329888 22.3601616 439.92914399999995
64.0122984 22.39452 440.05010400000003
63.5764896 22.231425599999998 440.01345599999996
60.3803952 21.3977808 439.06744799999996
60.452546399999996 21.912012 438.19308
60.8849208 20.5375248 440.721072
60.688656 20.5824096 440.44279200000005
62.753421599999996 22.170132 439.809336
60.0919632 20.1427632 441.486936
60.0562008 22.229143200000003 437.447448
60.3420552 22.166892 437.532696
60.034176 20.4628896 440.69414400000005
60.17240879999999 20.0351304 441.72511199999997
60.638774399999996 21.6072288 438.76555199999996
60.5332944 20.837858400000002 439.860888
60.4478376 21.7224576 438.529896
60.214975200000005 21.84498 438.346656
59.932044000000005 21.8511576 438.253344
60.047712000000004 21.7405368 438.50484
56.9175984 24.800824799999997 432.00993600000004
62.8502328 23.017521600000002 438.86916
60.147086400000006 21.4803432 438.913224
53.652254400000004 22.128825600000003 435.70044
57.969179999999994 23.037537599999997 435.536496
60.4171008 21.5328312 438.82668
60.6824064 22.3397928 437.366016
60.5463912 22.1139216 437.64357600000005
60.8249952 22.2440544 437.636376
60.590664 22.8476232 436.466952
56.634854399999995 23.3164296 434.52237599999995
60.1974648 21.647188800000002 438.675768
60.491772000000005 22.4378928 437.04144
60.236171999999996 21.7533744 438.522624
62.7987096 22.4909064 439.458984
63.7474608 22.9776408 439.44242399999996
60.979276799999994 22.7802024 436.927464
61.4739384 22.693248 437.61319199999997
62.442208799999996 22.8906288 438.608952
63.3959064 23.409936000000002 438.69801600000005
63.5793264 23.1088752 439.209864
62.9718624 23.463698400000002 437.93877599999996
66.5848872 24.1120512 438.673536
63.2435976 24.017493599999998 437.16024
64.5728904 23.279472000000002 439.769664
60.9764976 33.2632296 449.30239199999994
56.6769096 28.884369600000003 429.898248
63.4816728 25.162898400000003 435.410352
63.2678904 25.0615584 435.58379999999994
65.31788159999999 23.939136 438.24787200000003
65.14331759999999 24.0586992 438.08522400000004
64.90579679999999 24.202792799999997 437.92272
63.9396504 24.1826832 437.720112
64.5126552 24.449198400000004 437.540544
64.8375624 24.3545328 437.695848
66.5732808 23.734720799999998 439.82856
66.39795360000001 23.9858856 438.77203199999997
58.314348 23.535611999999997 434.534256
62.60328 25.022239199999998 435.484368
62.9791632 25.096463999999997 435.47724
58.4323128 23.435244 434.769408
60.320448 23.774767200000003 434.5974
59.5631448 23.585853600000004 434.889648
66.1682016 27.2844864 433.85616
58.6545264 23.5198152 434.65903199999997
61.7120424 24.657652799999997 434.896632
60.46788960000001 24.248303999999997 434.00606400000004
59.607324 24.057208799999998 433.903248
59.5287936 24.1426872 433.636776
59.261796 24.010257600000003 433.79244
60.38950319999999 24.742598400000002 432.64296
60.3079416 24.6411648 432.887832
62.859535199999996 25.267579199999997 435.146976
59.9175936 24.026997599999998 434.141352
59.907455999999996 24.302541599999998 433.545984
59.691384 24.281791199999997 433.40796
56.9385792 24.0011064 433.678968
56.73002400000001 24.026882399999998 433.495512
57.063405599999996 24.163372799999998 433.472472
56.8598472 23.5055088 434.32524
56.5248456 23.4381096 434.22696
59.221396799999994 23.877864 434.064384
60.266642399999995 24.060513599999997 434.18952
59.8340952 24.531803999999998 432.98747999999995
64.87923599999999 25.9780176 435.13487999999995
57.1712184 23.701031999999998 434.15531999999996
59.766192000000004 24.4444968 433.14703199999997
64.7351208 27.040356 432.86522399999996
62.899783199999995 26.226936000000002 432.230904
59.0112072 23.984380799999997 433.75838400000004
60.095923199999994 24.348196799999997 433.57284
59.882904 24.7987944 432.245232
60.1351776 24.7849272 432.41515200000003
60.1061256 24.9121656 432.12470399999995
60.9373872 25.2387288 432.27936
58.193748 24.963292799999998 431.361144
56.2105512 23.4855504 434.03738400000003
57.183336 24.0198624 433.71288
62.9253792 26.046467999999997 432.950832
59.961456 24.216832800000002 433.79244
59.7429 24.1832952 433.661904
62.2263672 24.8853456 435.34943999999996
63.7352568 25.183958399999998 435.52296
63.9954864 25.295479200000003 435.43648799999994
64.0243368 25.160004 435.765672
62.407872 25.1617536 434.952432
63.139464 26.4195144 431.894808
55.3881024 30.7053144 431.88796800000006
55.163815199999995 30.586075200000003 431.92807200000004
55.128276 30.8402928 431.985672
60.163963200000005 24.1860024 433.97301600000003
59.3845632 23.9538024 434.011608
60.2847432 24.3337176 433.72944
64.2158928 26.6263344 433.419192
56.4950376 30.673418400000003 431.59032
56.2446216 23.3278848 434.390616
54.41842080000001 22.509446399999998 435.42237600000004
55.018677600000004 23.2591608 434.68272
53.4344832 23.6396592 434.083968
55.3926888 23.3375472 434.635632
55.6087464 23.3975304 434.50804800000003
53.3193912 22.9665456 434.63505599999996
55.4648184 24.5194992 431.814384
55.436644799999996 24.4618056 432.069264
52.8599808 23.5462752 433.810728
54.283903200000005 24.360084 432.675072
55.7915616 23.870411999999998 433.37570400000004
53.6481 23.9475384 433.783872
53.9675424 24.0289128 433.713168
50.6549376 23.7047256 431.24796
55.0271088 24.346296 432.725616
56.510352000000005 24.849842400000004 431.375832
58.3335216 25.152321599999997 430.777656
58.464151199999996 25.1488656 431.00964
54.5077368 24.3132192 432.154008
54.533102400000004 24.384564 432.45871200000005
54.182872800000005 24.28326 432.315144
56.96532 24.8360688 431.71704
56.6408376 24.8186376 431.679456
55.139004 24.371316 432.504
53.8062768 24.241593599999998 432.267408
53.515871999999995 24.160096799999998 432.16538399999996
53.2448856 24.0723504 432.307368
52.9427592 23.9600592 431.90532
53.4861864 24.1111584 432.999504
53.5764312 24.1714512 432.58752000000004
56.464041599999995 23.837508000000003 433.576656
52.64190000000001 22.9703256 434.251872
57.0823776 23.182192800000003 435.05848799999995
56.3605416 24.7366008 431.84678399999996
56.615781600000005 24.7764168 431.98848
52.630264800000006 23.271573599999996 433.89791999999994
53.13096720000001 23.599209600000002 433.97143200000005
52.615627200000006 23.761979999999998 432.610776
54.008496 24.0672024 430.958304
54.007092 22.0998024 435.89678399999997
54.118958400000004 22.3264152 435.622896
54.317181600000005 22.189665599999998 435.922632
51.9741792 21.786012 435.697344
48.463235999999995 21.593124 435.213144
48.2936112 21.393698399999998 435.383568
48.232548 21.0616128 435.80613600000004
49.478472000000004 21.474928799999997 435.612312
48.895452 22.1616792 434.40732
48.6841896 22.4585712 433.95472800000005
48.726705599999995 22.63878 433.594008
49.0061736 21.2686632 435.734928
52.0601832 22.3889976 434.708424
51.84393119999999 22.4790192 434.51978399999996
52.0822584 22.521852 434.476296
51.32048399999999 22.5586872 434.47384800000003
51.5456136 22.6691208 434.28621599999997
50.522436 22.603896 434.281464
44.881725599999996 25.834068 431.34407999999996
44.675683199999995 25.337916 431.366688
44.5247496 25.4946672 431.912088
52.2499176 22.3326576 434.86531199999996
52.3063944 22.494528 434.65716000000003
50.7692808 22.4971704 434.509776
51.128560799999995 22.4510472 434.64052799999996
52.971141599999996 22.8774456 434.572848
52.421781599999996 23.4603648 433.382328
49.332967200000006 21.9416112 434.897208
51.27974640000001 23.471294399999998 432.63604799999996
47.225469600000004 22.1754096 433.730592
47.5056936 22.1382 433.83196799999996
47.3017968 22.053636 434.135304
47.683000799999995 22.070455199999998 434.04494400000004
45.789717599999996 21.5431992 434.8494
46.539698400000006 21.717547200000002 434.93695199999996
46.6606224 21.6089136 435.09132000000005
48.6880992 21.9573504 434.6712
48.254810400000004 21.9619224 434.519928
45.093902400000005 22.2644304 433.51185599999997
45.3245328 22.15458 433.64167199999997
46.442289599999995 22.0537512 434.257344
47.8685952 21.8556576 434.601
44.3640384 22.519303200000003 433.39723200000003
44.9422416 22.4727912 433.228968
44.6196384 22.7924424 432.952344
43.087464 22.8978432 434.764512
43.3108008 22.3328952 434.78387999999995
47.743358400000005 22.1731704 433.735848
47.823408 21.634812 434.92471200000006
47.5454232 22.7334888 432.592704
47.4599016 22.626540000000002 432.718056
45.49312079999999 22.8757176 432.37728
45.812412 22.715496 432.51638399999996
45.7298856 22.905849599999996 432.302472
45.642686399999995 23.0629896 432.105192
43.911496799999995 26.6938488 432.870336
44.1224352 26.5505688 432.839304
43.939583999999996 26.4941496 433.1502
47.270757599999996 21.5647632 435.006216
46.7825184 21.3330096 435.357936
43.2130392 25.246526399999997 433.78524
42.846739199999995 25.586863200000003 433.996272
42.939828 25.043284800000002 434.151936
46.6524072 22.140900000000002 433.94651999999996
46.842948 22.218688800000002 433.60416
46.8659088 22.0091688 434.362392
43.695756 23.027191199999997 433.241496
43.8465888 23.2170552 432.941688
41.1099768 26.2051272 434.10052800000005
41.7066408 25.917264 434.127816
45.87766559999999 21.8206872 434.446848
47.560651199999995 21.5930088 434.925864
46.267596 21.258662400000002 435.32856000000004
43.6740984 22.1024088 434.540952
43.595928 22.01094 435.141
43.2486648 23.0059728 434.01635999999996
43.6083048 26.472520799999998 433.412568
43.6706784 26.7039504 433.05890400000004
41.947516799999995 25.2403632 435.166992
41.28174 25.822187999999997 434.72016
43.3986984 23.3482248 433.426608
43.366636799999995 23.8383288 433.28620800000004
45.1078488 21.3208416 435.453552
45.0189072 21.453573600000002 435.26649599999996
43.514676 24.062241600000004 432.88416
43.4184264 27.3955752 431.621712
43.283088 27.3435768 431.99639999999994
48.0896208 21.1483728 435.56904
43.6183704 24.350558399999997 432.76752
46.81030320000001 20.983428 435.81816000000003
45.9204408 22.0840056 433.69430400000005
44.035236 21.9125232 434.80224
44.082036 21.829464 435.133728
42.8000688 24.8916528 434.61230399999994
46.11754079999999 21.9932712 434.216448
45.8172576 21.991176 434.010744
44.1026352 21.9579696 434.43007200000005
43.8805944 22.08906 434.174184
44.311723199999996 21.7778256 434.947392
44.4042576 21.645828 435.24100799999997
44.5746816 21.709547999999998 434.880288
45.4741632 21.714012 434.56701599999997
44.362821600000004 21.829694399999998 434.652912
45.4567392 20.9882448 435.78720000000004
43.3446912 22.4872272 434.30493600000005
44.2013544 22.0637592 434.07712799999996
44.4331656 21.9158064 434.333448
45.398606400000006 21.178224 435.479976
45.0950112 21.553761599999998 435.00024
43.5907872 21.8727864 435.525696
44.7907248 21.5837064 435.13120799999996
43.9435584 22.3105176 433.802016
44.3478528 22.2236784 433.775448
49.342622399999996 23.2197336 432.407592
49.098456 23.2796664 432.26971199999997
48.376908 21.213561600000002 435.642912
46.8531144 21.7331352 434.85804
46.990008 22.1493672 433.970712
47.515629600000004 22.266324 433.48528799999997
47.705327999999994 22.435344 433.15905599999996
50.7146904 23.6048616 431.55252
44.7246 21.898821599999998 434.34698399999996
44.642772 21.8049768 434.58422400000006
45.531806399999994 21.8753856 434.249784
45.399290400000005 22.0193064 433.94119199999994
44.725089600000004 22.283251200000002 433.634904
43.6237704 22.2511896 434.10232799999994
43.4999952 24.955056 433.439208
43.4476008 25.2016416 433.589832
45.6241896 22.091637600000002 433.6596
43.8965352 22.6534032 433.422216
44.801891999999995 22.949892000000002 432.61466400000006
45.0234432 22.701427199999998 432.838872
44.0496648 23.2473528 432.73324799999995
44.129894400000005 22.9399848 433.042128
45.9389232 22.9880808 432.22507199999995
46.2120768 22.816324800000004 432.411696
45.4662504 22.29822 433.253808
45.802576800000004 22.4192016 432.88711200000006
45.9255384 22.2298056 433.20448799999997
45.8037576 22.1350896 433.45886399999995
45.509220000000006 25.7725584 430.108632
45.944085599999994 25.2747216 429.865344
45.4397328 25.0802712 430.31577599999997
49.2917544 23.153399999999998 432.660096
47.497586399999996 22.5099936 432.931464
43.8897096 24.901610400000003 432.745992
46.5355152 22.5766656 432.687312
46.103983199999995 22.5436248 432.68738399999995
43.363526400000005 24.128841599999998 433.330992
45.2173176 22.5011376 433.01174399999996
44.063064000000004 23.8569048 431.814816
44.323077600000005 23.8180248 431.631072
44.1692064 25.3583568 432.576432
43.5202488 22.676047200000003 433.729584
43.2706896 24.486235200000003 433.815624
41.718772799999996 25.5774024 434.5866
42.392376 25.1817264 434.542392
49.4464608 22.6517184 433.882224
43.289856 24.8910768 433.760256
43.751671200000004 24.1636824 432.328464
42.151600800000004 25.5986568 434.20773600000007
42.6209472 27.3241656 432.42141599999997
42.7608504 27.389916 432.251784
42.894928799999995 27.299030400000003 432.417672
43.5426912 25.6286304 433.622376
43.8447456 23.979664800000002 432.01187999999996
43.8964776 23.7747816 432.14896799999997
43.1131392 26.7900912 433.197288
42.797232 26.886700800000003 433.14372
44.5615848 23.620824000000002 431.60486399999996
42.948842400000004 27.388188 432.14716799999997
44.4038976 27.0753624 431.53092
44.5723632 26.3704896 432.33537600000005
44.3341944 26.5215528 432.52286399999997
44.4334896 26.0339544 432.48376800000005
43.863472800000004 26.2962576 433.427976
45.231120000000004 23.5498104 431.38209599999993
48.4141464 22.6092816 433.41321600000003
48.622104 22.8035088 433.156752
48.0253608 23.6824416 431.71617599999996
51.124219200000006 23.147244 433.558944
48.2559408 22.575700799999996 433.278792
44.181287999999995 25.841512799999997 432.94932
49.566312 22.911264 433.370592
49.68208800000001 22.8725352 433.514952
47.763144 23.536353599999998 431.860464
48.1631256 23.55228 431.990208
50.453891999999996 23.4093168 432.44280000000003
52.4947896 23.7158856 432.772848
52.8356304 23.873241599999997 433.00965599999995
49.7395368 24.1684992 429.728616
49.8570264 23.830855200000002 431.006256
52.908069600000005 23.314075199999998 434.109744
51.2852256 22.960540799999997 433.912464
51.137186400000004 22.888836 434.05279199999995
51.6733344 22.876207199999996 434.00483999999994
48.9253248 22.927082399999996 433.02096
51.165158399999996 23.227711199999998 433.355472
49.5198576 23.2299288 432.57196799999997
50.0459184 22.966473600000004 433.47787200000005
49.821048000000005 22.8503088 433.66096799999997
49.6546704 22.7191464 433.85868
48.696804 22.992544799999997 432.87717599999996
47.893507199999995 24.0741864 430.564824
47.71239119999999 24.2239536 430.34133599999996
47.5043472 24.0636312 430.625088
47.088 23.086389599999997 432.16668000000004
46.8777744 22.792319999999997 432.44712
47.2651992 22.7802384 432.50875199999996
47.6625096 22.905288 432.476352
51.884690400000004 11.962907999999999 447.263856
49.644475199999995 23.8328208 430.910928
49.5238896 23.873320800000002 430.656912
46.8105696 25.3194552 429.42384
46.371636 24.7909896 429.93172799999996
47.14638480000001 24.6871656 429.78110399999997
50.1169032 23.8596552 430.923816
50.367578400000006 23.7777768 431.115048
53.5046976 24.067936800000002 431.728128
53.9547192 24.287148000000002 432.55728000000005
52.475544 23.9038344 431.466912
53.5095576 24.1184448 430.36243199999996
53.6840928 24.4679688 429.245424
52.347528000000004 24.6203136 428.938992
52.5949632 24.393636 429.13620000000003
52.8146352 24.571332 428.782248
50.967684000000006 26.8898688 429.834528
50.8660416 27.633492 430.447104
48.7439352 23.874710399999998 431.0532
47.3494752 24.4765152 429.987456
47.0147616 24.4564272 430.070184
47.281442399999996 24.3613872 430.22001600000004
46.861826400000005 23.9438736 430.84036799999996
49.876128 23.9060736 430.69046399999996
48.91817519999999 23.884322400000002 430.75692000000004
47.7991008 23.9297544 430.87867200000005
46.8642816 23.5286496 431.64504
46.534075200000004 23.5906056 431.49456
46.4586552 23.342903999999997 431.8182
46.8241632 23.2662744 431.93851199999995
47.10294 23.367232800000004 431.884656
46.7425584 23.694674399999997 431.36596799999995
46.9289808 24.0586632 430.62292800000006
47.162195999999994 24.167476800000003 430.478568
45.1560384 25.7376024 430.638624
45.114098399999996 26.352583199999998 431.023824
45.910116 24.5081088 430.376904
45.8629128 24.878124 430.061688
46.980216 24.318424800000003 430.29309600000005
44.891647199999994 25.111079999999998 430.89595199999997
45.79664399999999 26.648308800000002 429.846552
45.574884000000004 26.2998504 430.106184
46.037052 25.9540704 429.63703200000003
44.712 27.6559272 430.269696
44.680996799999996 24.465736800000002 431.074368
43.767820799999996 24.5159568 432.582264
44.4470904 24.8800464 431.445168
42.141132 27.665712000000003 431.50824
43.002072000000005 27.585345600000004 431.273448
42.7936752 27.530856 431.621208
40.6024344 26.5529016 433.53216
40.479876000000004 26.384450400000002 433.820376
41.271336 27.118295999999997 432.579096
41.1505704 26.898011999999998 432.99791999999997
43.1227296 27.4914216 431.5266
43.0225488 27.4538304 431.816616
47.263752 27.3151656 428.87570400000004
47.3252544 26.783164799999998 428.94719999999995
44.0542656 23.4504936 432.38836799999996
44.3352888 23.610247200000003 431.750088
47.524629600000004 24.9534792 429.428376
47.8143792 25.493731200000003 429.123888
43.724570400000005 23.7693672 432.538848
44.2002528 23.529520800000004 431.988984
45.9538128 23.2740288 431.85362399999997
45.422366399999994 22.601376000000002 432.753408
46.599948000000005 23.0052096 432.230976
46.24216559999999 23.087664000000004 432.117792
46.9375272 22.594824 432.68191199999995
45.01145519999999 23.254776 431.897256
45.421027200000005 23.314176 431.73568800000004
47.4573528 23.0735232 432.264816
47.4332256 23.330469599999997 432.00050400000003
47.158236 23.9795928 430.750224
44.9780832 23.430636000000003 431.63539199999997
44.747784 23.500548 431.5986
43.421320800000004 28.4256 428.896656
43.8003288 28.038153599999998 428.959728
43.6435704 27.9942264 429.41044800000003
44.137634399999996 26.4193992 433.029024
48.530692800000004 24.203620800000003 430.09466399999997
48.067956 24.004584 430.757352
48.2332248 24.0419952 430.564392
50.378616 23.8889088 430.853976
50.083207200000004 24.021266400000002 430.249896
48.264919199999994 24.241644 430.112736
48.395347199999996 24.406826399999996 429.859584
49.4413128 24.497172000000003 429.337872
49.4206848 24.775761600000003 429.155136
50.0365368 24.1101432 429.84280800000005
50.333356800000004 24.118488 429.87225600000005
50.0901264 25.245446400000002 428.92473599999994
49.9705632 24.6781224 429.09947999999997
49.716201600000005 24.8661936 429.034968
49.434782399999996 24.1083864 429.93108
50.1084648 24.3007056 429.449184
52.021548 26.246476799999996 428.77979999999997
46.2389904 28.196171999999997 427.380336
48.484180800000004 27.091749600000004 429.20611199999996
48.9348864 26.9657208 429.417648
48.64092480000001 25.5738168 429.04519200000004
49.41043199999999 24.270991199999997 429.63415200000003
49.62312 24.2950392 429.44169600000004
51.588352799999996 25.596950399999997 428.459184
51.0993936 24.2485128 429.488784
51.3318024 24.200568 429.64545599999997
51.281438400000006 25.3903248 428.69714400000004
51.156756 25.076908799999998 428.882832
50.7981456 25.2432 428.84676
47.4563808 24.248793600000003 430.379496
51.77841839999999 25.2656712 428.57042399999995
51.6791952 29.8511496 430.80552
51.53522399999999 29.232770400000003 430.77988799999997
51.051110400000006 29.828181599999997 430.35652799999997
49.66632 24.6127464 429.146856
47.5062048 24.4133064 430.08083999999997
47.566317600000005 24.360868800000002 430.19582399999996
49.804372799999996 24.264028800000002 429.432336
49.1675832 24.4293048 429.534216
48.0708864 24.191330400000002 430.30763999999994
46.7088696 24.5663496 430.02756
41.3896104 25.922973600000002 434.378088
47.096481600000004 25.6923648 429.076656
44.9583624 27.699789600000003 429.46934400000004
44.5489704 27.7631352 429.544872
44.845480800000004 29.4671808 426.992688
44.415108 28.9060632 427.513104
44.127720000000004 29.536344000000003 427.12703999999997
45.282484800000006 27.599212799999997 429.189768
45.754956 27.4882752 429.180552
45.81542160000001 28.276833599999996 427.448808
42.9392736 44.8876584 428.868504
42.987168 44.454441599999996 428.944248
48.8545416 24.512637599999998 429.622344
48.5465904 24.6042288 429.60916799999995
49.524847199999996 25.1093592 428.998104
48.2767344 25.887708 428.97312
49.76278560000001 24.415164 429.28128
48.6381024 24.435424799999996 429.76188
49.0246056 29.9906352 428.797224
43.901568 27.073051200000002 432.10749599999997
49.192776 26.7546456 429.407064
51.558825600000006 24.7399416 429.085656
51.271559999999994 24.776222399999998 429.06492000000003
51.9180984 25.068312 428.702472
52.0361712 24.287623200000002 429.640632
53.2728576 24.5230128 428.696496
51.795179999999995 23.9968008 430.311168
51.814872 24.1357896 429.963624
50.738011199999995 24.0340896 430.324272
47.319055199999994 29.975148 427.799088
47.140120800000005 30.071800800000002 427.693248
53.9932608 24.1023456 430.62292800000006
56.42244 24.98832 430.27221599999996
56.611713599999995 25.005513599999997 430.588368
51.00399360000001 25.963178399999997 428.885712
52.8559056 24.257757599999998 429.306048
52.514978400000004 24.2857656 429.577488
52.195068000000006 24.2197776 429.83683199999996
52.4587896 24.183287999999997 429.903288
52.7728032 24.9151104 428.52384
54.112824 25.274620799999997 428.63695200000006
56.148811200000004 26.032989599999997 428.211
55.7696016 25.782278400000003 428.234472
56.0367216 25.678980000000003 428.405328
50.603018399999996 24.078816 429.996528
50.586659999999995 23.9747688 430.653024
53.6033016 24.089111999999997 430.53242400000005
52.8105456 24.1909344 429.94267199999996
50.2412904 23.965344 430.619112
53.0097696 24.0781176 430.575552
52.85090159999999 24.123967200000003 430.258536
51.3852912 24.088456799999996 429.97975199999996
52.839396 24.005253600000003 430.83043200000003
59.470725599999994 11.6817768 448.014096
59.5219176 11.9455992 447.673536
59.1211944 11.8756944 447.822864
50.427251999999996 24.0306696 430.27221599999996
50.6797272 24.217243200000002 429.582528
56.7964008 24.836104799999998 431.85312
54.520056000000004 24.6970152 429.338664
54.2756736 24.5441448 429.50440799999996
54.284904 24.1997688 432.02570399999996
54.5085576 24.1847064 431.8956
53.9139816 24.41394 429.492312
55.7664192 24.6984264 431.353296
53.9412408 24.042441600000004 431.436744
61.579576800000005 26.120548799999998 430.955136
61.374211200000005 26.026776 431.080704
61.6752216 26.0602416 431.307936
53.6669352 24.7979376 428.760288
54.5655168 24.9862824 429.022296
54.831441600000005 24.296277600000003 430.99848
49.9043736 27.3251232 430.059888
50.270075999999996 27.525888 430.357032
50.3749296 27.150343200000002 430.10063999999994
55.6318728 24.7178448 430.96896
54.6006816 24.829992 429.199848
54.78582240000001 24.881976 429.15707999999995
57.0551688 25.2986976 429.735168
56.9677248 25.2666 430.03756799999996
57.20778000000001 25.2531216 429.94576800000004
55.6115616 25.282360800000003 428.875632
55.3862016 25.4184552 428.704128
67.535136 29.6554752 433.09317599999997
54.7751448 24.19956 431.3052
55.5725016 25.074187199999997 429.079464
59.3649864 25.502918400000002 430.447824
59.5751328 25.528176000000002 430.605216
56.86028639999999 25.4319192 428.833584
54.5661072 25.271870399999997 428.765112
57.2129352 25.2055224 430.216344
55.84607999999999 24.9197544 429.50181599999996
57.948393599999996 25.608852 428.9436
57.68766 25.4529864 429.157152
54.73872 25.9677792 428.165352
54.87134400000001 25.6949424 428.33973599999996
57.5832456 25.5745944 428.86900800000006
57.440808 25.7684328 428.610024
57.1402296 25.6984272 428.53701599999994
57.1891392 25.8757056 428.4036
58.6687104 25.803216000000003 429.20208
59.635332 25.636903200000003 430.28625600000004
59.8578696 25.614561600000002 430.54452
59.2722936 25.5607344 430.147512
61.330579199999995 26.6050728 429.288408
62.383420799999996 27.413935199999997 428.867784
63.022608 26.7143832 430.428024
63.1887624 26.797608 430.53760800000003
60.522912 24.944176799999997 432.368928
56.306354400000004 24.9077664 430.714728
56.509948800000004 24.9106968 431.014176
56.876803200000005 24.966950399999998 430.932528
54.5569488 24.401419200000003 432.700272
54.978069600000005 24.3478008 431.716608
55.9912608 24.5585088 432.090936
55.7094744 24.4765224 432.13773599999996
55.816322400000004 24.596819999999997 431.804088
56.3234472 24.6336768 432.182736
58.579192799999994 24.686028 432.206712
62.395473599999995 25.9577712 432.30650399999996
59.9971464 25.4491416 431.309232
61.4822328 25.841318400000002 431.704728
61.0440192 25.683011999999998 431.620632
58.7582208 24.8024952 432.110808
60.3311616 25.065684 432.008568
58.7472192 24.532812 432.564768
58.8686832 24.6875328 432.358344
54.7969104 24.4046232 432.636192
53.2972512 24.069758399999998 432.037152
55.603144799999995 24.6067056 431.59968
56.1088368 24.638796000000003 431.92692
58.5497376 25.239888 430.77254400000004
63.7716528 26.4052368 433.272168
55.157227199999994 25.569964799999997 428.53824000000003
55.4738112 25.604892 428.490072
58.5117648 25.369668 430.03296
56.7634032 25.3087416 429.817824
56.4367176 25.200979200000003 429.7914
60.9249744 25.8185952 431.03671199999997
61.1984376 25.85322 431.30627999999996
60.8625288 25.686151199999998 431.32716000000005
61.147512000000006 25.9494984 430.975008
59.774839199999995 25.912871999999997 429.77304
59.99922720000001 25.8700104 429.955776
59.798325600000005 25.7698656 430.03180799999996
60.3894528 25.775078399999998 430.530696
60.6614976 25.8828768 430.452792
62.4867192 26.071632 431.940816
62.38404 26.3350296 430.58224800000005
61.586287199999994 25.649064 432.24681599999997
59.7594672 25.5499416 430.75900800000005
59.9631984 25.6002696 430.790328
59.8225896 25.5096576 431.016912
59.5794384 25.4223 431.07393599999995
60.0742656 25.7594544 430.267896
60.4173816 25.8577488 430.262496
56.8302192 26.1774072 428.12964
57.294324 26.3214576 428.144472
57.1431312 26.0435592 428.236704
59.118048 25.4521872 430.440552
58.8627216 25.421832000000002 430.18883999999997
59.1930864 25.9908984 429.40036799999996
57.060403199999996 25.3411344 429.38474399999996
57.2707296 25.3597104 429.265296
56.8440144 25.322054400000003 429.532056
55.94328 25.3778328 428.83236
55.8047448 25.1879328 429.010344
57.286972799999994 25.271755199999998 429.796872
57.097476 25.4178 429.012144
58.24630080000001 25.4936592 429.440832
57.729794399999996 25.7235192 428.744088
57.3936408 25.4428128 429.061536
58.163061600000006 26.466012000000003 428.27003999999994
60.0028056 26.100453599999998 429.565176
59.6201328 26.093476799999998 429.446016
59.931172800000006 26.277998399999998 429.33355199999994
60.3222768 25.940721600000003 429.986376
56.0594952 25.0988328 429.34924800000005
60.3379944 26.105868 429.69729600000005
58.8838248 26.0083296 429.166296
57.5125848 27.295905599999998 428.33786399999997
56.818447199999994 26.831447999999998 428.294952
48.415068 27.6590088 429.313392
58.2798744 25.532827200000003 429.200208
58.137264 25.5199968 429.074064
57.2811624 25.5484296 428.757912
55.688148 25.4893248 428.66035200000005
55.756353600000004 25.6401936 428.437368
55.924394400000004 25.5557304 428.605416
55.8224424 25.0441776 429.226632
56.5555032 25.285032 429.54501600000003
60.0874344 25.9734744 429.782472
56.5098408 25.4682648 428.69066399999997
56.1802968 25.5113064 428.65020000000004
56.367741599999995 25.4972376 428.67885599999994
50.1811056 30.6804528 428.998104
50.305212 30.750062399999997 429.018984
50.104403999999995 30.836865600000003 428.878224
54.028548 26.334215999999998 428.37566400000003
54.1955376 25.9828848 428.14404
54.4493664 26.244748799999996 428.12978400000003
57.49334640000001 26.065303200000002 428.38761600000004
57.707150399999996 25.9131816 428.60872800000004
55.01496959999999 25.3538712 428.76129599999996
54.789660000000005 25.519492800000002 428.565096
55.257264 25.7099544 428.30265599999996
55.532800800000004 25.7285088 428.290056
60.345633600000006 27.606384 428.281344
55.035547199999996 25.796030400000003 428.179608
55.3689288 25.9356312 428.17269600000003
53.9761968 25.4091168 428.48064
46.882526399999996 28.1997 427.59842399999997
46.711648800000006 28.032480000000003 427.60332
46.92678480000001 28.016467199999997 427.85517600000003
48.159971999999996 34.762176 427.676472
48.1237344 34.3266048 427.460184
47.531915999999995 29.891606399999997 427.876344
46.584511199999994 28.304532000000002 427.39214400000003
47.2103496 28.1871504 427.95885599999997
47.3500584 28.461139199999998 427.954392
56.3697 30.338711999999997 431.312112
47.0358432 27.585374400000003 428.704056
47.226758399999994 26.153287199999998 428.9706
45.2634768 38.4314976 427.666032
44.8888248 39.147912 427.786776
45.5138784 38.7707112 428.07607199999995
47.1287448 28.0136232 428.13475200000005
48.0319704 29.8064016 428.277024
46.6253208 28.675476000000003 427.260168
46.5072048 29.152857599999997 427.14504000000005
47.2769208 30.7636416 426.985776
48.9345912 30.483136799999997 428.22914399999996
49.164228 30.4882632 428.479272
47.335319999999996 27.989186399999998 428.48618400000004
47.38775760000001 28.2543048 428.192496
46.749168 30.3381288 427.08506400000005
48.129876 31.6879992 426.1554
47.127873599999994 29.7950328 427.710888
46.528668 29.7345528 427.166568
46.881935999999996 29.7085824 427.489344
45.9495792 30.5573184 426.34951199999995
46.2683736 30.5974728 426.453192
46.214589600000004 30.411683999999997 426.64312800000005
46.8357984 30.9097296 426.418704
46.008036 29.691331199999997 426.873672
46.095105600000004 28.8082296 427.133664
45.9540288 30.268620000000002 426.64413599999995
45.973259999999996 30.064708800000002 426.766176
46.2224304 30.1238352 426.873384
45.943200000000004 31.3382376 425.261592
45.866318400000004 31.195677599999996 425.46038400000003
47.645877600000006 29.047104 428.127336
