# .PCD v0.7 - Point Cloud Data file format
VERSION 0.7
FIELDS x y z
SIZE 4 4 4
TYPE F F F
COUNT 1 1 1
WIDTH 1341
HEIGHT 1
VIEWPOINT 0 0 0 1 0 0 0
POINTS 1341
DATA ascii
20.7911911 27.30096436 35.59822083
20.74533844 27.28955078 35.46661377
21.14358521 27.16638184 36.13157654
20.91357422 27.40890503 34.96153259
20.1053772 27.0453186 35.88594055
20.23303986 27.09039307 35.86373901
20.82624054 27.42755127 34.54475403
20.8506546 27.44116211 34.9021759
20.89200211 27.47006226 34.80645752
20.95690918 27.42858887 34.88548279
20.63457489 27.36798096 35.10179138
21.19026184 27.28921509 34.9360199
21.14949799 27.3170166 35.04644775
20.61647034 27.53991699 34.67770386
20.51535034 27.49520874 34.71821594
20.34024048 27.5249939 34.38494873
20.20035934 27.57507324 34.56491089
20.35092163 27.43041992 34.77648926
21.22080612 27.2822876 35.38789368
21.11003876 27.29858398 35.48249817
20.67977905 27.27282715 35.58242798
21.24425507 27.26086426 35.49568176
21.42875671 27.04898071 35.65092468
21.37779999 27.0774231 35.73857117
18.74429321 27.54962158 34.88964844
18.6583519 27.49847412 34.99041748
18.61602783 27.537323 34.85586548
20.8897171 27.300354 35.94296265
20.78263855 27.31488037 35.92356873
20.76121521 27.31454468 35.99380493
20.69392014 27.37228394 35.15631104
20.89700317 27.05606079 37.1174469
20.64762878 27.27270508 35.40170288
20.8942337 27.32150269 35.6630249
20.89262009 27.30957031 35.81889343
20.79745865 27.30795288 35.38150024
20.61008072 27.24304199 35.46908569
20.49045563 27.19277954 35.4597168
20.42321014 27.17907715 35.37335205
20.55706406 27.21459961 35.56808472
20.24181366 27.2147522 35.15562439
20.20513535 27.26113892 35.05584717
20.33535767 27.1522522 35.94673157
20.34148026 27.12695313 35.84117126
20.4355545 27.15090942 35.56803894
20.34439468 27.08743286 35.61946106
20.41807175 27.14331055 35.78591919
19.92015457 26.88967896 35.582901
20.07587433 26.96228027 35.57618713
21.25976181 27.04696655 36.02738953
20.39622498 27.17788696 35.91795349
20.47837067 27.20471191 35.8866272
21.36276245 26.92608643 35.82139587
21.31365204 27.15151978 35.78785706
21.19709396 27.0892334 36.31512451
21.15644073 26.6083374 36.46891785
21.16838074 26.8296814 36.70207214
20.26278687 27.10479736 37.44702148
20.35812378 26.98443604 37.49656677
20.65931702 27.22741699 36.37443542
20.06262207 27.15829468 36.40275574
19.8812561 27.18460083 36.51876831
20.08848953 27.13949585 36.2412262
20.05782318 27.18127441 36.58714294
20.39089203 27.2149353 36.73786926
20.50704193 27.21115112 36.77336121
20.57281113 27.20739746 36.6855011
20.39933014 27.16760254 36.24375916
20.34272003 27.15808105 36.3656311
20.21910095 27.13824463 36.17863464
20.64247131 27.27331543 35.87771606
20.50157547 27.18753052 36.34327698
20.49058533 27.18811035 36.25166321
20.92344284 27.25924683 36.21504211
20.60335541 26.74765015 37.40715027
20.70043182 27.3036499 35.97167969
20.22949219 27.04351807 35.60247803
20.29645538 27.16705322 36.48429871
20.12114334 27.09884644 36.0181427
20.75148773 27.30380249 35.81983948
20.99214172 27.28286743 35.93389893
20.94393158 27.27764893 36.01373291
20.78992462 27.16555786 36.96600342
21.07275391 27.0993042 36.52842712
19.86614609 27.26742554 37.60508728
19.93066788 27.25860596 37.52101135
19.78532791 27.30880737 37.52378845
20.73449326 27.19894409 36.71182251
20.62541199 27.20535278 36.76135254
20.05303955 27.19332886 37.55323792
20.13478851 27.16812134 37.50099182
19.79220581 27.27679443 37.40638733
20.18795013 27.17196655 36.51875305
20.22152328 27.15090942 36.42004395
20.58325958 27.20629883 36.85029602
20.59046936 27.20013428 36.95014954
20.4098587 27.22158813 36.84352112
20.29763031 27.22952271 36.84692383
20.45848083 27.1730957 36.42532349
20.59617615 26.23446655 37.32527161
20.51877975 26.20602417 37.33210754
20.2673645 27.21279907 36.70321655
19.67372894 27.3430481 37.53321838
20.19696426 27.20101929 37.21115112
20.13197708 27.21298218 36.70587158
20.19428253 27.23348999 36.79573059
20.45732117 26.93405151 37.45204163
19.84452438 27.24328613 37.11099243
20.24674988 27.23077393 36.98835754
20.19295502 27.13891602 36.3256073
20.58037567 27.08621216 37.28639221
20.51271057 27.13522339 37.25540161
20.34571075 27.19290161 37.18157959
20.48959732 27.21517944 36.90013123
20.19002533 27.19216919 36.62194824
20.20225906 27.21966553 37.08815002
20.1488266 27.18264771 37.41984558
21.10404205 26.53527832 36.79191589
20.86780548 25.7571106 37.25520325
20.80123138 25.81350708 37.27507019
20.34070206 26.70611572 37.52986145
20.47189331 26.79104614 37.46136475
20.36092377 26.86410522 37.5302887
20.25577545 26.97421265 37.573349
20.50234222 25.68066406 37.35638428
20.60515976 25.66122437 37.34553528
21.1019516 26.03494263 37.0559082
20.55039978 26.12112427 37.29612732
20.53742599 26.00592041 37.29025269
20.73288727 25.70440674 37.30604553
20.8723526 26.22467041 37.15438843
21.10497284 26.38162231 36.81404114
21.10596848 26.25198364 36.61506653
20.65543365 25.58465576 37.34693909
20.74979401 25.36395264 37.34010315
20.27090073 26.16015625 37.33866882
20.41545868 26.18896484 37.3311615
21.15109253 25.91317749 37.04615784
21.07850647 25.87036133 37.10115051
20.96756744 25.81005859 37.18278503
20.96761322 25.99014282 37.14147949
20.50265503 25.35766602 37.38027954
20.40062332 25.3684082 37.35523987
20.22181702 26.83773804 37.6353302
21.14461899 25.62597656 37.03144836
20.197258 27.17922974 37.34367371
20.1662941 26.34689331 37.44015503
20.2841835 26.53024292 37.48550415
19.09587097 27.18170166 36.29808044
18.96791458 27.20211792 36.39533997
18.99034882 27.14401245 36.21011353
19.89467621 25.9118042 37.11531067
19.68257141 25.83981323 37.02406311
20.36450958 25.22277832 37.2739563
20.10451508 26.74053955 37.72885132
20.56573486 26.53839111 37.42399597
20.17359543 26.96255493 37.64842224
19.67884064 26.27926636 37.81797791
19.44061279 26.08575439 37.80825806
20.01612854 26.30999756 37.54656982
19.58729172 26.11322021 37.74984741
20.05857086 26.9498291 37.73435974
19.50904083 26.80761719 35.63284302
19.83395386 26.44055176 37.82778931
19.88297653 26.34521484 37.74546814
19.97367477 27.16366577 37.6509552
19.90198517 27.07876587 37.78501892
20.13866425 27.08840942 37.59790039
18.89794922 27.24291992 37.88812256
18.88240051 27.02410889 37.98948669
19.40176392 27.43280029 37.52949524
19.69385147 27.24960327 37.30203247
19.65514374 27.23217773 37.19805908
19.35817337 27.33798218 37.80535889
19.39849854 27.24707031 37.13465881
19.79966736 27.012146 37.88041687
19.76577377 26.86245728 37.92047119
19.48519135 27.13021851 37.92179871
19.90544128 25.60986328 37.06655884
19.76205063 25.60769653 37.02229309
19.28630066 26.82183838 38.02986145
18.76598358 26.22174072 36.96565247
19.02742767 27.18051147 37.9533844
18.67770004 26.26742554 36.95358276
19.38661194 27.25286865 37.02250671
19.30017853 27.2666626 36.88243103
19.49342346 27.24761963 36.90576172
19.3098526 26.11160278 37.32783508
19.34864044 26.08920288 37.64715576
19.24409485 25.72103882 37.01220703
19.21005249 25.58172607 37.01707458
19.4332962 25.57720947 37.01438904
19.71746445 25.11727905 36.77589417
19.60097504 25.13015747 36.79527283
19.07084274 25.37365723 36.88154602
19.17626953 25.22180176 36.84465027
19.18997955 25.30050659 36.93719482
19.8999939 25.24160767 37.0166626
19.95966721 25.14141846 36.92831421
19.29491806 25.36965942 36.99005127
19.22845459 25.47750854 37.01045227
19.61816788 26.0965271 37.6199646
20.05275726 25.99099731 37.26275635
19.98433685 26.35546875 37.65193176
20.08177948 25.52597046 37.21818542
19.92789459 25.43466187 37.0945282
20.05464935 26.08782959 37.31463623
20.10861588 26.18191528 37.35704041
19.82907104 25.78225708 37.02960205
19.56333923 27.34341431 37.45269775
19.98436737 27.20800781 36.71426392
19.94823456 27.18435669 36.62037659
19.85876465 27.19094849 36.66677856
19.74827576 27.23675537 37.14178467
19.95230865 27.23706055 37.28199768
19.77259827 27.24517822 37.01228333
19.35485077 26.02365112 37.04292297
19.27577972 26.1211853 37.06651306
19.14044189 26.652771 38.02532959
18.48321915 26.25354004 36.54322815
18.84041214 25.81851196 36.63668823
19.42240906 25.8621521 37.02307129
19.1412468 25.05535889 36.49472046
19.03426361 25.09640503 36.49072266
18.82118225 26.13165283 36.73641968
19.25661469 27.15139771 36.18760681
19.01697159 27.03274536 36.0378418
18.80307007 25.92767334 36.58044434
18.80526352 26.18200684 36.85380554
18.71379089 25.93255615 36.46601868
18.93846512 26.14431763 37.27120972
18.61141968 25.94024658 36.25706482
18.65666199 25.89160156 36.36038208
18.65293884 26.0043335 36.36734009
19.11675262 25.49401855 36.97561646
18.76818466 25.50231934 36.57652283
18.72285461 25.45523071 36.46803284
18.92480469 26.75769043 38.02523804
19.74251556 25.05529785 36.53717041
19.22296143 25.88766479 37.00100708
19.1244545 26.10476685 37.40698242
19.14579773 26.03842163 37.00804138
19.01576996 26.45007324 37.99591064
18.89548111 26.09518433 36.83560181
18.75893402 26.81796265 37.98655701
18.76928711 26.63839722 38.00526428
18.60175323 26.6965332 37.88339233
19.1129303 26.15701294 37.81938171
19.27741241 26.16073608 37.09907532
18.99377441 26.14312744 37.61340332
18.89213562 26.5402832 38.01025391
18.72999191 26.51370239 37.92884827
18.1729393 26.77868652 37.30397034
18.36932373 26.73245239 37.58627319
18.58467102 26.38375854 37.33346558
18.51142502 26.48352051 37.39329529
18.61823273 26.98416138 37.90794373
18.94495392 27.38638306 37.77223206
18.40123749 27.22531128 37.78996277
18.2937851 27.43557739 37.52839661
19.07324982 27.53063965 37.54103088
19.47874832 26.79580688 35.72381592
19.59046555 26.79388428 35.71026611
18.87050629 27.55090332 37.56884766
18.95085144 27.37197876 36.97409058
18.88432693 27.5138855 37.6506958
18.98992538 27.52438354 37.60554504
18.95570374 27.47583008 37.68183899
18.98047638 27.5473938 37.51167297
18.80475998 27.44827271 37.71646118
19.07159805 27.17935181 36.5078125
19.00778961 27.23178101 36.60166931
18.69791412 27.32873535 36.45109558
18.72061539 27.29983521 36.36468506
18.80234146 27.27258301 36.40188599
18.75879669 27.55328369 37.41114807
18.41944122 27.47912598 37.52590942
19.39616394 27.38070679 37.43122864
18.80936432 27.49838257 37.2474823
19.63683319 27.24475098 36.94862366
19.74981689 27.24191284 36.88847351
19.64817047 27.22927856 36.78723145
18.97470856 27.52337646 37.40306091
18.46379852 27.44967651 37.29936218
18.84002686 27.10617065 36.12271118
18.71247101 27.16052246 36.1647644
18.68913269 27.09194946 36.04811096
19.2049408 27.33132935 37.21630859
19.8624649 27.25582886 37.33000183
19.29999161 27.31588745 37.28077698
19.30239868 27.35900879 37.3553772
19.38066101 27.31359863 37.33757019
19.6926651 27.31918335 37.45384216
19.83968353 27.22305298 36.79229736
19.86016083 27.24621582 36.91307068
19.44473267 27.23245239 36.76292419
19.46157837 27.23547363 37.08370972
19.1872406 27.17227173 36.53465271
19.10699844 27.17318726 36.57752991
19.42713547 27.2678833 37.24797058
18.85469055 27.41485596 37.02368164
18.60907745 27.43374634 36.97480774
19.13999176 27.32406616 37.0639801
19.24005508 27.2885437 37.02342224
19.84871674 27.61322021 34.64953613
19.87528992 27.57815552 34.71775818
18.70598602 27.25027466 36.28108215
18.66182709 27.31256104 36.35461426
19.68059158 27.23394775 36.21313477
19.53346252 27.22186279 36.22860718
17.52941895 27.38119507 35.82731628
17.4967041 27.37442017 35.91183472
18.11535645 27.43130493 36.84077454
18.59358215 27.4256897 36.8706665
18.60572052 27.17019653 36.11611938
19.32365799 27.15533447 35.48249817
19.95996094 27.23666382 36.81530762
18.89684296 27.04727173 35.5188446
20.04226303 26.97372437 35.79325867
18.82906342 27.1862793 36.25643921
19.97592163 27.05258179 35.37527466
20.03896713 26.98916626 35.4414978
20.15646362 27.05230713 35.445755
19.16235352 27.5229187 34.95549011
19.50627518 27.32543945 35.258255
19.39041901 27.35449219 35.27650452
17.83596039 27.40771484 35.88284302
18.68405151 27.42944336 35.10083008
18.68151855 27.3742981 35.17189026
19.4730835 27.22946167 36.47290039
18.90617371 26.96282959 35.92277527
18.88331604 27.25592041 36.50039673
18.56797791 27.28604126 36.28738403
18.4418602 27.3067627 36.27062988
19.55718613 27.2166748 36.62710571
19.72750092 27.20123291 36.63330078
19.38514328 27.23327637 36.31596375
19.29272461 27.21124268 36.42680359
20.26145935 27.17422485 35.22975159
19.78620911 27.22689819 36.26281738
19.55731201 27.0664978 36.07757568
19.7511673 27.15768433 36.14680481
19.80399704 27.22418213 36.37464905
19.8899231 27.0925293 36.07391357
19.21260452 27.20294189 36.30918884
19.28677368 27.22766113 36.3193512
20.00950241 27.04528809 35.96138
19.63396835 27.18972778 36.16052246
19.15159607 27.1244812 35.50732422
19.25638962 27.36535645 35.29103088
19.49074554 27.35772705 35.19042969
19.36566162 27.32955933 35.36294556
18.39804077 27.60153198 34.16963196
20.30879211 27.54260254 34.6171875
19.58243942 27.31939697 35.19789124
20.03611755 27.11004639 36.09927368
19.37876129 26.80569458 35.67895508
19.26467896 26.85214233 35.64863586
19.27331543 26.82305908 35.72807312
19.944664 27.59848022 34.67190552
19.67912292 26.79647827 35.7026825
19.78816223 26.83547974 35.68371582
20.37831497 27.1394043 35.44267273
20.28656769 27.10614014 35.43287659
20.30453491 27.09695435 35.51905823
19.96213531 27.05615234 36.01628113
19.3519516 27.20666504 36.60664368
19.76602554 27.19903564 36.71723938
19.9081955 27.2406311 36.8536377
19.86491394 26.90475464 35.87490845
18.60839844 27.05731201 35.93902588
19.27832794 27.22399902 36.27310181
18.70670319 26.90304565 35.63787842
18.81729889 26.89788818 35.64208984
19.18198395 27.19766235 36.64472961
19.290802 27.22442627 36.74035645
19.77256012 26.8815918 35.89161682
19.47386169 26.92657471 35.96839905
19.59463501 26.93008423 35.98208618
19.12897873 27.18438721 36.41020203
18.58441925 27.34112549 36.42028809
18.47881317 27.32928467 36.37385559
18.83275604 27.0222168 36.01609802
18.74584198 26.97674561 35.91159058
18.87467957 26.90628052 35.81802368
18.75013351 26.90811157 35.74858093
18.86536407 26.95819092 35.58000183
19.2335434 27.3458252 35.36021423
18.97390747 27.28253174 35.34231567
18.90350342 27.30908203 35.27549744
18.98822784 27.38165283 35.17506409
19.72504807 27.37783813 34.97346497
19.29981232 27.3553772 35.35063171
18.41118622 27.46817017 34.95707703
18.46993637 27.46047974 35.02534485
19.98362732 27.20358276 35.12973022
19.61353302 27.34457397 35.09945679
19.8340416 27.83053589 33.80787659
18.04159927 27.43603516 34.56913757
17.97658539 27.42706299 34.46247864
18.82687378 27.59042358 34.62260437
18.68643951 27.56817627 34.55955505
19.08856964 27.54562378 34.88874817
18.6289978 27.20843506 35.36581421
19.09480286 27.4083252 35.13520813
19.5646286 27.42089844 34.98596191
18.60946655 27.38919067 35.15974426
18.91940689 27.43804932 35.07095337
18.94532013 27.50927734 34.94360352
18.99625015 27.58331299 34.74789429
20.400383 27.49905396 34.69262695
19.25254822 27.59634399 34.71798706
19.89228821 27.59680176 34.32194519
19.62049866 27.525177 34.79376221
19.53886795 27.49502563 34.86630249
20.44361115 27.45928955 34.74711609
20.28262711 27.49078369 34.70475769
20.08039093 26.97854614 35.4858551
18.66915894 27.02801514 35.52310181
19.24672318 25.01507568 36.38883972
18.10260773 26.18780518 35.86683655
18.25720215 26.20678711 35.86653137
18.89860535 26.91940308 35.63000488
18.90413666 26.90100098 35.70632935
19.6656189 26.87255859 35.92205811
20.0388031 25.17446899 37.01768494
20.0697937 25.25271606 37.10490417
20.21522141 25.04278564 36.42991638
19.829216 25.32479858 37.03268433
20.14416504 25.04464722 36.11193848
18.77533722 25.63134766 36.59277344
18.76477814 25.77685547 36.54914856
20.21095657 25.06488037 36.54122925
19.2139473 24.98922729 35.81214905
19.20820236 24.98190308 35.96783447
19.86665344 25.11248779 36.81283569
19.38802338 25.02172852 36.50650024
19.79309082 25.09237671 36.69108582
19.32689667 25.24121094 36.9229126
18.93353653 25.48046875 36.76960754
18.46852493 26.24719238 36.42333984
18.37125397 26.26971436 36.43815613
18.72262192 25.61483765 36.48062134
19.16297531 25.38702393 36.97492981
18.84310532 25.39447021 36.6541748
18.25762177 26.30053711 36.47424316
18.21820068 26.25860596 36.31980896
18.11760712 26.31549072 36.46240234
18.97517776 24.98657227 35.85682678
19.09122849 24.98910522 35.72750854
18.61372375 25.20144653 36.00779724
18.721035 25.08859253 35.98744202
18.83821106 25.01538086 35.93730164
18.65572357 25.09793091 35.17837524
18.52468109 26.07458496 36.09422302
18.51100922 26.01358032 36.00212097
18.54655838 25.94525146 36.06915283
19.33489227 24.98156738 36.03807068
18.29110336 27.2104187 37.73747253
19.282547 25.02496338 36.5019989
19.20305252 25.06710815 36.58462524
19.10796738 24.98220825 35.87426758
19.21878052 25.00421143 35.63883972
18.93598175 25.01812744 36.01564026
18.69369507 25.06021118 34.97953796
18.74219513 25.1003418 33.94110107
18.94165802 24.93920898 34.2519989
18.8672905 24.98092651 34.20701599
18.78512192 25.04229736 34.65306091
18.86922836 25.01797485 34.58773804
19.13442993 24.81005859 34.07824707
19.088871 24.855896 34.2313385
18.68463898 25.05154419 34.72167969
19.00462341 24.96990967 34.54920959
19.00811768 25.02194214 34.70878601
18.88658142 25.03915405 34.70365906
18.72140503 25.05432129 34.85704041
18.54608154 25.34158325 36.00942993
18.36132813 25.55725098 35.56622314
18.35634613 25.48104858 35.48571777
17.35734177 26.3324585 36.21377563
17.40740204 26.30163574 36.30195618
17.40914154 26.19989014 36.23405457
18.33946991 25.4006958 35.37905884
18.85010529 24.99359131 35.78297424
18.61463928 25.10418701 35.84535217
18.6134491 25.47729492 36.20536804
18.57530212 25.55792236 36.13273621
18.52588272 25.412323 36.00691223
18.54718781 25.6602478 36.07769775
18.68062973 25.44668579 36.34370422
18.66542053 25.33877563 36.26719666
18.61001587 25.72045898 36.23312378
18.32467651 25.52963257 35.40541077
18.33494568 25.63775635 35.46495056
18.57152557 26.05987549 36.21321106
18.57156754 25.96826172 36.15020752
17.75121307 26.48980713 36.49308777
17.61483765 26.35598755 36.40795898
17.78617859 26.33355713 36.41592407
18.27032471 25.40756226 35.22903442
18.45384979 25.55987549 35.88218689
18.17745209 25.46798706 35.12519836
18.20554352 25.55841064 35.1855011
18.28578949 25.52468872 35.30552673
18.42700577 25.15383911 34.80857849
18.338871 25.25085449 34.70939636
18.95659256 24.81518555 33.67086792
18.23279572 25.33053589 34.9651947
18.26504135 25.29928589 35.05957031
18.18305206 25.42138672 35.03715515
18.49880981 24.93695068 33.18473816
18.59099197 24.97671509 33.27653503
18.54693985 24.59896851 33.29747009
18.88786316 24.26516724 33.59223938
18.91027451 24.41207886 33.60702515
18.45491791 25.81921387 35.8535614
18.4230957 25.75592041 35.78489685
18.4208374 25.15979004 34.6577301
18.44132996 25.59448242 33.2016449
18.37583923 25.70101929 33.17323303
18.44252396 25.69827271 33.28413391
18.84323883 24.98855591 34.43888855
18.70259857 25.0249939 34.37179565
18.06491089 25.60870361 35.03382874
18.17144775 25.42468262 34.91212463
18.0248642 25.55761719 34.84759521
18.61798096 25.04431152 34.38754272
18.9670105 24.94512939 34.43081665
18.91053009 24.94937134 34.35069275
19.01972961 24.89846802 34.36154175
18.52605438 25.52767944 33.73472595
18.25245285 25.45495605 34.4928894
18.70835495 25.26184082 33.55151367
18.61516571 25.39788818 33.49642944
18.65446091 25.29885864 33.42713928
18.80812073 25.04483032 34.77905273
18.5226059 25.17977905 34.31632996
18.49555206 25.29214478 33.14820862
18.53665161 25.400177 33.81066895
18.36462402 25.49978638 34.35523987
18.10966492 25.62905884 34.38288879
18.49360657 25.69232178 33.42985535
18.22583008 25.37026978 35.12411499
18.39395142 25.87023926 35.63647461
18.36670303 25.69186401 35.59092712
17.40266418 26.13092041 35.42085266
17.34791565 26.25912476 35.3966217
17.40571594 26.21255493 35.52690125
17.67462158 26.20962524 36.31221008
17.53075409 26.11755371 36.26345825
17.57585526 26.10723877 36.15788269
17.49033356 26.08068848 36.2114563
17.48459625 26.14007568 35.53395081
17.45283508 26.13293457 35.49055481
17.56233597 26.07098389 35.46533203
17.71074677 25.959198 35.2518158
17.81544876 26.10281372 35.51065063
17.84467316 26.11758423 35.62979126
17.84857941 26.13095093 35.78266907
18.0994873 25.80145264 35.13571167
18.03012848 25.96615601 35.16116333
18.36574936 26.09039307 35.56278992
18.38211441 26.19219971 35.96716309
18.385952 26.14953613 35.75444031
18.41957855 25.82666016 35.74951172
18.44777679 26.13464355 35.99417114
18.45613098 26.16619873 36.09889221
18.58046722 25.81524658 36.1529541
18.5954895 25.6383667 36.18147278
18.93424225 25.04489136 34.8180542
19.14426422 24.46087646 33.88699341
19.18764496 24.55072021 33.96162415
19.09861755 24.58505249 33.83457947
18.58131409 25.21459961 34.13163757
18.98877716 24.90795898 34.18200684
18.49106598 25.74578857 33.87190247
18.48192596 25.75720215 33.77038574
18.53185654 25.3321228 33.90692139
18.5967865 25.23135376 33.91822815
18.52030563 25.61209106 33.58456421
18.51399994 25.67056274 33.7049408
18.63268661 25.38278198 33.60862732
18.65763092 25.30984497 33.68023682
18.28903961 25.68167114 34.23048401
18.79180908 25.09463501 33.83146667
18.68229675 25.16705322 33.8681488
18.30834961 25.77316284 34.07804871
18.39427948 25.81967163 33.88130188
18.04808807 26.24838257 33.25778198
18.13837433 26.22747803 33.19049072
18.36859131 26.01583862 33.48918152
18.43148804 25.91552734 33.4528656
18.5690155 25.39904785 33.33888245
18.2235527 25.82974243 33.96720886
17.60481262 25.89593506 34.42759705
18.1803627 26.12277222 33.10240173
18.22764587 26.13409424 33.23240662
18.48522186 25.44433594 33.18891907
18.49777222 25.56411743 33.30783081
18.38329315 25.82287598 33.25900269
18.37464905 25.56365967 33.09034729
18.41318512 25.37692261 33.05770874
18.26261902 26.13122559 33.33007813
18.54726028 25.53213501 33.44728088
18.11665344 26.24572754 33.08526611
17.92027283 27.43762207 33.51713562
18.2545929 27.65759277 33.23921204
17.58657074 27.31930542 33.63450623
17.76285172 26.43484497 32.6859436
19.16423035 28.12359619 32.45207214
18.43437576 27.50177002 34.56755066
18.34464264 27.48602295 34.52456665
18.59189224 27.07363892 35.50727844
17.80383301 27.5050354 34.29222107
17.79230881 27.43237305 34.38920593
17.93570709 27.46652222 34.36349487
17.92926788 27.53649902 34.25320435
17.83643341 27.59268188 34.15605164
18.85280609 27.54907227 34.88638306
19.29572296 27.66085815 34.31129456
18.81058502 27.57620239 34.79362488
18.71219254 27.57592773 34.76914978
18.31885147 27.46563721 34.85429382
18.80130005 27.47485352 35.01371765
18.52684402 27.49725342 34.96272278
18.0517807 27.52597046 34.29249573
17.40549088 26.02947998 35.30166626
17.31790924 26.14471436 35.31080627
18.30439758 27.54318237 34.31745911
18.07069397 27.43630981 34.78118896
18.07704926 27.67547607 34.06108093
17.77671814 27.38372803 34.47706604
17.88080597 27.40994263 34.43901062
17.82166672 27.6595459 34.0317688
17.90171051 27.39831543 34.52734375
17.80656815 27.37304688 34.57261658
18.02504349 27.60595703 34.16874695
17.9399147 27.67752075 34.05601501
17.97666931 27.41162109 34.8576355
17.83944702 27.39413452 34.78623962
18.02099991 27.40237427 34.99354553
18.17046356 27.41903687 34.99479675
18.19637299 26.18164063 35.53282166
18.03506088 26.1618042 35.60839844
17.96184921 26.14959717 35.46586609
18.62345886 26.93823242 35.6179657
18.35499573 27.20065308 35.87339783
18.4616394 26.01376343 35.89303589
17.87957764 25.84524536 35.08912659
18.64297485 27.13290405 35.44338989
18.04598236 27.32952881 35.63818359
18.474823 27.09420776 35.85820007
18.51713181 27.44076538 36.92430115
18.49620819 27.43438721 36.81610107
18.27856445 27.20346069 35.53512573
18.46505356 27.50427246 34.82891846
17.93437958 27.42956543 35.33886719
18.5140152 27.31390381 35.25785828
18.21906662 27.43942261 34.89814758
18.10613251 27.43023682 34.88835144
18.29071045 27.25839233 35.40258789
17.96936798 27.40313721 35.4395752
17.71694946 27.39505005 35.97695923
18.13906097 27.34893799 35.87060547
17.76032257 27.38095093 34.96636963
17.86824036 27.38943481 34.92228699
17.76040649 27.38540649 34.87023926
18.35710907 27.3427124 36.36430359
16.97353745 26.98864746 34.88204956
17.1594162 27.38235474 35.01460266
18.29162598 27.43841553 34.97981262
18.29524994 27.36218262 35.24606323
17.71295929 27.40139771 35.86479187
17.87032318 27.43243408 36.26023865
18.10167313 27.38104248 35.96173096
17.80496979 27.36978149 36.43003845
17.90185547 27.37927246 36.39811707
18.05221558 27.37878418 36.337677
18.09660339 27.35247803 36.4556427
17.52134705 27.41976929 35.26994324
17.93949127 27.41717529 36.28492737
17.67739105 27.38406372 35.09922791
17.65483856 27.3828125 35.01396179
17.74458313 27.37878418 35.05134583
17.56811905 27.38693237 35.11219788
18.34845734 26.29586792 36.55029297
17.96468353 27.35009766 36.45335388
18.61534119 27.21908569 36.19444275
17.90293121 27.42572021 36.18614197
17.96230316 27.33197021 36.5632782
17.83029938 27.32992554 36.49980164
18.02777863 27.35418701 37.06889343
17.91111755 27.26150513 37.06530762
17.96423721 27.24035645 37.17176819
18.47898102 27.41409302 36.68690491
17.99608612 27.37796021 36.76905823
17.33381271 26.43139648 36.14450073
18.36730957 27.41549683 37.24009705
18.2109375 27.36941528 37.26008606
18.33377075 27.42907715 37.39492798
18.50276184 26.15600586 36.19418335
18.40608215 26.21221924 36.17131042
17.85997772 27.3085022 36.84609985
17.79794693 27.29934692 36.74046326
17.90588379 27.33480835 36.69949341
18.04772186 27.21456909 37.45553589
18.04449463 27.25335693 37.32321167
18.07778931 27.32727051 37.18162537
18.22844696 26.61782837 37.16065979
17.96350098 27.13729858 37.2653656
18.02170181 27.10412598 37.40397644
18.05875397 26.85748291 37.16853333
18.08625793 26.71121216 37.11064148
17.98768616 26.84631348 37.05197144
18.20310211 26.49404907 37.02641296
18.08549118 26.50823975 36.98921204
18.09634399 26.55114746 37.05244446
17.97122955 26.7359314 36.99446106
17.37608337 26.21295166 36.1118927
17.44338989 26.11962891 36.15713501
18.07019424 26.41931152 36.6686554
18.68799591 25.53720093 36.40962219
18.40241241 26.24661255 36.34648132
18.49532318 26.21578979 36.35804749
18.60655594 26.05523682 36.30076599
18.45848465 26.21160889 36.2746582
18.51532745 25.85043335 35.99389648
18.01500702 26.3296814 36.44827271
17.94734955 26.38449097 36.48471069
18.03997803 26.35394287 36.48791504
18.38431931 26.16256714 35.87275696
18.29781342 26.19851685 35.75648499
17.65398407 26.66412354 36.52641296
17.7517662 26.74368286 36.60128784
17.63903046 26.79510498 36.57189941
18.17740631 26.19400024 35.70191956
18.07873535 26.19024658 35.74198914
18.01651382 26.19259644 36.07633972
18.26531219 26.21774292 36.1449585
18.19064331 26.20608521 35.78089905
17.2902298 26.59075928 35.95625305
17.38782501 26.41049194 36.31359863
17.52991486 26.775177 36.51377869
17.48722839 26.67529297 36.45866394
17.2899704 26.62194824 36.08872986
17.71113968 26.12341309 35.99913025
18.35659027 26.23376465 36.25448608
17.78372192 26.15841675 36.18475342
18.13079071 26.95275879 37.48530579
18.03836441 26.46963501 36.79344177
17.95809937 26.52114868 36.6837616
18.07152939 26.37136841 36.53707886
18.09046173 26.39389038 36.60054016
17.34979248 26.4881897 36.25346375
18.12255859 26.44055176 36.88710022
17.83457184 26.62252808 36.60728455
17.82741547 26.75741577 36.69715881
17.90155792 26.66073608 36.77157593
17.94642639 26.26925659 36.34649658
17.94631195 26.64898682 36.91191101
17.89355087 26.73156738 36.873703
17.96679688 26.55743408 36.81117249
18.00535965 26.43765259 36.58609009
17.90566254 26.4916687 36.56182861
17.49836731 26.21969604 36.32020569
17.46154785 26.39266968 36.37394714
18.02286911 26.52554321 36.90808105
17.78843689 26.87838745 36.77746582
17.78736115 26.99606323 36.88381958
17.88616943 26.83566284 36.92558289
17.9760704 26.95700073 37.12336731
18.01920319 26.98043823 37.27166748
17.90768433 27.10424805 37.10925293
17.91123962 26.73699951 36.93367004
17.70866013 26.85534668 36.65565491
17.86663818 26.77285767 36.81289673
17.89291763 26.9725647 37.0138092
17.40041351 27.01843262 36.52024841
18.03607941 26.60391235 37.01261902
18.1319046 26.59494019 37.09465027
18.07780457 26.61199951 37.08320618
18.10637283 27.159729 37.54347229
17.40842056 26.56542969 36.3711853
17.5526123 26.52340698 36.44287109
17.98545837 27.39492798 36.88197327
17.92589951 27.33898926 36.97247314
17.75474167 27.1734314 36.85092163
17.8167038 27.09289551 36.98016357
17.80419922 27.29754639 36.62823486
17.84086609 27.22183228 36.98295593
17.70075989 27.22747803 36.70173645
18.05962372 27.40863037 36.96302795
17.53492737 26.88796997 36.57041931
18.11897278 27.41741943 37.02516174
17.7611351 27.26977539 36.79826355
17.31590271 27.36264038 35.94599915
17.60616302 27.38955688 35.89602661
17.53836823 27.36264038 36.00810242
17.63196564 27.37921143 36.09214783
17.15859222 27.23266602 35.69190979
17.31586456 26.97857666 36.41181946
17.35812759 26.34033203 35.50549316
17.33492279 26.38983154 35.42193604
17.191185 26.42111206 35.09623718
17.31319427 26.5017395 35.56747437
17.23207855 26.65615845 35.46592712
17.2288208 26.74230957 35.78974915
17.33708954 27.37042236 35.99571228
17.4003334 27.36691284 35.97424316
17.28384399 26.74633789 36.19900513
17.26878357 26.96691895 36.28074646
17.37623596 26.80926514 36.41004944
17.26290131 26.17431641 35.21488953
17.27993774 26.08123779 35.22984314
17.21992874 26.1161499 35.14279175
17.21530533 26.90075684 36.07328796
17.25111389 26.72598267 36.03404236
17.34236908 26.63409424 36.2858429
17.46878433 26.17175293 35.58996582
17.45607758 26.11865234 36.24180603
17.31506348 26.57113647 36.17323303
17.47438049 26.15570068 35.95783997
17.32419586 26.3538208 35.32388306
17.29855347 26.48535156 35.36151123
17.30502319 26.25717163 35.27430725
17.50149536 25.91751099 35.17918396
17.59043884 25.96182251 35.30007935
17.27705002 26.25302124 35.20159912
17.28338623 27.3939209 35.45378113
17.24843597 27.41799927 35.42697144
17.68488693 25.89898682 35.15315247
17.31645203 26.00476074 35.1277771
17.19704437 26.08026123 35.07777405
17.64559174 25.8237915 34.91925049
17.33946991 27.03796387 33.74035645
17.34705353 27.07650757 33.88175964
17.3062706 26.94873047 33.82385254
17.24530411 27.48532104 35.133255
17.64982605 27.41149902 35.30885315
17.37448883 27.48782349 35.25332642
17.18073654 27.42745972 35.40959167
16.92147064 26.17901611 34.67340088
17.08228302 26.13684082 34.65527344
17.35054016 26.08758545 34.05953979
17.28289795 26.10760498 34.16181946
17.23723602 26.12417603 34.00785828
17.34267426 26.07122803 34.00180054
16.81005096 26.33758545 34.67803955
16.76308441 26.23266602 34.16973877
17.16644287 27.67156982 33.22358704
17.20079803 27.50372314 33.28511047
17.32424164 27.65216064 33.28373718
17.34376144 27.33963013 34.66349792
17.364254 27.32070923 34.55686951
17.34328461 26.05838013 34.32473755
17.25165176 26.08886719 34.45545959
16.82469177 26.25881958 34.48234558
16.82035065 26.246521 34.34498596
17.02933502 27.302948 35.14852905
17.10692978 27.3458252 35.323349
17.32876587 27.29724121 34.35150146
17.19086075 27.15811157 34.53573608
17.3137207 27.30844116 34.47969055
17.16607285 27.0664978 35.89584351
16.80889893 26.19946289 34.22375488
17.14098358 26.13461304 34.56834412
17.27202606 26.03915405 34.68226624
17.06803131 26.12478638 34.78970337
16.83953476 26.20544434 34.57933044
17.23005676 26.22512817 35.14096069
16.89291382 26.19412231 34.17539978
16.94584656 26.19781494 34.10240173
17.41518402 27.36691284 34.44419861
16.80277252 26.41424561 33.67211914
16.83662415 26.46551514 33.78726196
16.74049759 26.38162231 33.37983704
16.98483276 26.18896484 34.19723511
16.78128052 26.47460938 34.81845093
16.74856186 26.28994751 34.80264282
16.94815063 26.97189331 35.14198303
15.26513672 27.71691895 31.82162476
15.18312073 27.63464355 31.78004456
15.20994186 27.75405884 31.75674438
7.16028595 15.40936279 23.53067017
15.25200653 27.83917236 31.72645569
15.30327606 27.80932617 31.7918396
15.02568436 27.12023926 31.63201904
15.01157379 27.20379639 31.59150696
15.06632996 27.21060181 31.65029907
15.6444397 27.75976563 32.21044922
15.66303253 27.82559204 32.1756134
15.57157135 27.75869751 32.14744568
17.10129166 27.39889526 35.09706116
17.54402161 27.39349365 34.74964905
17.65361023 27.38037109 34.46769714
17.53954315 27.38516235 34.44894409
17.4700737 27.34994507 34.53152466
6.863098145 26.80487061 22.3125
7.004852295 26.77554321 22.50245667
6.393249512 26.7175293 22.38432312
16.72771454 27.862854 32.78358459
16.61943817 27.83883667 32.75906372
16.66590881 27.76000977 32.8658905
15.63563538 27.65637207 32.2358551
15.94598007 27.62115479 32.5355072
17.60987854 27.5256958 33.94859314
17.5549469 27.5149231 34.03590393
16.34648895 27.22869873 32.92468262
16.24075317 27.12460327 32.88340759
16.25066757 27.24066162 32.83500671
17.17118073 27.24060059 33.39648438
17.26064301 27.23114014 33.4566803
17.26921844 27.33911133 33.38232422
17.07425308 27.19400024 33.34883118
17.13791656 27.12533569 33.43554688
15.75849152 27.86959839 32.20581055
16.96092224 27.64523315 33.15104675
17.07058716 27.76486206 33.13700867
17.05949402 27.66958618 33.19625854
15.70825195 27.90109253 32.1056366
17.47940063 27.45166016 34.11192322
17.89167023 27.70230103 33.97372437
16.68250275 27.49743652 33.0526886
16.61784363 27.56436157 32.99624634
16.54758453 27.48568726 32.97895813
16.94032669 27.74645996 33.07203674
17.4163208 27.37350464 33.45794678
17.51029968 27.4538269 33.44644165
17.03762054 27.27905273 33.30499268
17.04191589 27.39517212 33.25619507
17.14654541 27.33605957 33.33181763
16.94238281 27.4864502 33.18800354
16.82510376 27.53973389 33.11387634
17.33803177 27.47842407 33.3507843
16.28797913 27.03408813 32.96409607
17.05937195 27.56616211 33.22668457
17.26438904 27.81915283 33.14324951
16.52598572 28.00598145 32.501297
16.45358276 27.9447937 32.58717346
15.93965149 28.03387451 31.94497681
15.97245789 28.06729126 31.80685425
15.86089706 28.03488159 31.86105347
16.23664474 28.090271 31.89552307
16.06646729 28.04553223 32.06297302
14.86482239 27.32946777 31.50448608
17.44747925 27.76226807 33.24208069
16.01442337 27.96737671 32.28239441
15.92512894 27.92224121 32.29924011
15.95832825 27.98562622 32.19090271
17.12277222 27.95687866 32.89216614
16.7614212 27.44442749 33.09681702
15.83130646 28.04257202 31.75520325
17.27049255 27.12109375 34.10006714
17.40475464 27.32199097 34.05220032
17.41917038 27.23809814 33.92358398
17.92868042 27.69970703 33.9100647
17.80484772 27.64477539 33.93278503
17.80205536 27.47540283 33.75862122
17.76601791 27.56561279 33.85319519
17.68963623 27.57202148 33.91473389
17.65249634 27.46643066 33.84043884
17.53816223 27.31680298 33.78474426
17.51172256 27.41363525 33.94786072
17.7142868 27.40701294 34.41770935
17.47428894 27.27767944 33.57351685
17.51194763 27.4359436 34.35606384
17.6531601 27.45187378 34.35972595
17.27658844 26.96069336 33.9151001
17.17504883 26.87014771 33.95132446
17.42064285 27.17340088 33.77456665
17.39773941 27.16653442 33.65788269
17.29792023 27.08737183 33.6158905
17.49121094 27.24133301 33.68003845
17.24650192 27.40930176 33.33131409
15.45941162 27.71679688 32.06990051
15.93374252 27.85211182 32.39273071
17.02239227 26.75268555 34.13929749
17.28270721 26.90826416 33.75689697
17.2216835 26.84860229 33.81326294
17.25604248 26.96231079 33.67045593
15.27194595 27.61169434 31.87825012
15.1884613 27.51495361 31.798172
15.35253906 27.54440308 31.99742126
15.99674225 27.92111206 32.34759521
15.74285126 27.66064453 32.32756042
16.06916046 27.71514893 32.58163452
15.51359177 27.81491089 32.06098938
16.02777863 27.82620239 32.48446655
16.11560822 27.90063477 32.44334412
16.02894974 27.89691162 32.40577698
15.85056305 27.92758179 32.21885681
15.38887024 27.65289307 32.02775574
15.79251099 27.93048096 32.1431427
15.79890823 27.97384644 32.034729
16.42550659 27.12527466 33.00971985
17.12135315 26.55734253 32.12704468
15.74524689 27.37905884 32.35319519
16.25269699 27.37506104 32.77972412
16.08983612 27.19522095 32.60690308
15.93412399 27.73760986 32.48231506
16.83740234 27.66448975 33.07150269
16.76010895 27.60229492 33.06509399
16.8525238 27.86795044 32.87243652
16.55788422 27.60882568 32.92156982
16.2804184 27.81625366 32.64492798
15.39905548 27.972229 31.52774048
15.35985184 27.93695068 31.615448
16.52949142 27.69592285 32.84494019
16.83950043 27.75958252 32.97926331
16.59913635 27.95993042 32.59394836
16.98557281 27.83886719 33.00241089
16.60492706 28.01278687 32.49229431
16.25577545 27.98892212 32.35256958
16.88874054 26.94421387 33.29255676
16.70127106 27.64221191 32.9990387
16.40791321 26.5836792 33.22209167
16.35174561 26.7144165 33.14892578
16.31678772 26.5803833 33.09669495
17.10307312 27.87014771 33.05581665
17.95270157 26.28210449 32.80981445
16.71617889 28.06854248 32.40414429
15.06206894 27.92626953 31.4559021
16.66596222 27.90640259 32.71224976
16.79189301 27.96566772 32.69827271
16.95534515 28.06671143 32.63072205
16.43643188 28.03125 32.4074707
16.20327759 27.99578857 32.29727173
16.10839844 28.00973511 32.21388245
16.26454926 28.0480957 32.19343567
15.35948181 27.35992432 31.99345398
16.1755867 28.05490112 32.11538696
15.60310364 27.86019897 32.08317566
16.36439896 28.04067993 32.35929871
15.37664032 28.00500488 31.38204956
16.09408569 27.94952393 32.33900452
16.21373749 28.07653809 32.03038025
16.25682068 28.07122803 32.09410095
15.34718323 27.659729 31.95881653
15.66023254 28.0027771 31.72982788
14.56307983 27.2545166 31.14627075
14.60895538 27.24661255 31.23617554
16.4298172 28.09231567 32.07499695
16.3981514 28.05999756 32.28018188
16.29740906 28.0246582 32.3155365
15.24238586 27.97116089 31.41674805
15.85900497 27.96884155 32.13565063
15.33110046 27.95266724 31.54737854
17.43635941 28.07086182 32.5291748
15.12844086 27.96072388 31.39199829
15.38956451 27.84338379 31.8120575
15.919487 28.01202393 32.07798767
14.88499832 27.78317261 31.5055542
14.98483276 27.82305908 31.56907654
16.11422348 28.08779907 31.67729187
17.18056488 28.11352539 31.78541565
14.74967957 27.86859131 31.26785278
14.7456665 27.89416504 31.21342468
15.17342758 27.93597412 31.49664307
15.76331329 28.00912476 31.86102295
15.70448685 28.00436401 31.7880249
15.29737854 27.96008301 31.48881531
15.58451843 28.02734375 31.37437439
15.81592941 28.00527954 31.92884827
15.79137039 28.04995728 31.5954895
15.71492767 28.03240967 31.70899963
15.26354599 27.93023682 31.56932068
14.76834106 27.98648071 31.00582886
14.85801697 27.85241699 31.43260193
14.80828857 27.78491211 31.4342804
14.53768539 27.87182617 31.032547
14.46291351 27.82421875 30.9667511
14.44777679 27.83972168 30.84684753
14.69507599 27.64508057 31.32336426
14.79230881 27.63665771 31.45011902
14.50909805 27.79489136 31.06156921
15.06558228 27.89291382 31.54266357
15.07058716 27.84033203 31.6204834
14.32540894 27.46520996 30.86450195
15.2313652 27.24273682 31.84970093
15.3542099 27.88442993 31.7230072
16.06793976 28.06521606 31.39198303
15.15860367 27.89154053 31.59991455
15.2542572 27.8927002 31.65620422
15.15003204 27.81289673 31.68356323
15.12087631 27.6885376 31.71949768
14.89984131 27.96807861 30.89347839
14.9407959 27.13705444 31.55592346
14.94597626 27.25894165 31.5501709
15.81044388 27.04223633 32.42614746
15.90084076 26.90881348 32.5085907
14.75265121 27.02911377 31.34068298
15.25128555 27.4446106 31.88235474
15.69367981 27.11242676 32.27467346
16.19204712 26.68917847 32.73690796
15.44707108 26.91119385 31.92146301
15.24837112 27.01455688 31.85813904
15.54858398 26.89648438 32.03521729
14.76603317 26.92547607 31.11013794
14.59308624 27.03872681 31.16545105
15.0255127 27.70855713 31.63088989
14.93875122 27.73980713 31.58009338
14.94219208 27.67034912 31.59033203
15.18454742 27.13482666 31.81759644
16.54339981 26.92041016 33.13160706
16.65493774 26.97747803 33.13508606
16.62636566 26.85308838 33.20121765
15.11282349 27.14828491 31.73425293
15.15705109 27.03067017 31.78746033
14.95128632 27.40213013 31.56809998
14.43429184 27.71850586 30.98991394
15.9983139 26.70556641 31.53210449
15.52112579 26.81515503 31.69909668
14.46961594 27.55764771 31.05957031
14.50152588 27.46350098 31.10484314
14.84706497 27.20495605 31.48991394
14.87810516 27.04312134 31.47610474
14.97611618 27.02636719 31.59303284
15.04445267 27.03125 31.68708801
15.63214874 26.93319702 32.18875122
15.72948456 26.98648071 32.3175354
14.23468781 27.20565796 30.69825745
14.17973709 27.29064941 30.62055969
16.40323639 24.74664307 31.05290222
16.61364746 24.49954224 31.19821167
16.53469849 24.73272705 31.13131714
16.02341843 26.88043213 32.70014954
16.59266281 26.6628418 31.52935791
16.4846077 26.73416138 31.45329285
16.18566895 27.12954712 32.78442383
17.49617767 26.55014038 32.479599
17.38040161 26.57528687 32.50236511
15.78813934 26.82650757 32.22827148
16.04018402 26.96609497 32.68215942
17.00956726 26.58959961 32.2275238
16.24065399 26.72253418 33.02189636
16.09515381 26.85021973 32.82014465
16.54718781 27.04974365 33.06860352
16.53789902 27.16781616 33.03038025
16.63864899 27.17675781 33.06300354
16.36856461 26.84640503 33.1072998
16.2780304 26.81494141 33.0597229
16.90296936 26.27853394 33.27987671
16.74124908 26.93243408 33.1980896
16.74546051 27.00985718 33.15058899
17.00277328 23.88476563 31.65112305
17.03481293 24.12072754 31.69480896
16.5822258 27.2557373 33.03739929
16.57138062 27.36355591 33.01544189
16.48294449 27.24887085 32.9956665
17.61450195 26.38180542 32.95323181
17.34700775 26.38183594 32.13259888
16.83135986 27.39370728 33.13578796
16.19193268 26.8631897 32.93266296
16.11199188 26.91119385 32.86772156
16.43020248 26.79278564 33.16877747
16.46078491 26.86682129 33.13839722
16.51563644 26.82037354 33.19018555
16.71778107 27.09484863 33.108078
16.31505585 26.9201355 33.03816223
16.39706421 27.01223755 33.03245544
16.43587494 26.93783569 33.08882141
16.97070313 27.28564453 33.26187134
17.23460388 27.12567139 33.52485657
16.70383072 27.31845093 33.07333374
16.91806793 27.34005737 33.20198059
16.79970169 26.27163696 33.63809204
16.88694763 26.18432617 33.50216675
16.89387894 26.15481567 33.66789246
16.93236542 26.99252319 33.2940979
16.85338974 27.05722046 33.22155762
16.64550018 26.57800293 33.35098267
16.72250366 27.20159912 33.08506775
17.00237274 27.05938721 33.34423828
16.80791473 27.22915649 33.14439392
16.96953964 27.18014526 33.2865448
16.89954376 26.7588501 33.4876709
16.90467072 27.21655273 33.22175598
16.81441498 26.6633606 33.46867371
17.3482666 27.206604 33.54222107
17.88533401 26.04025269 32.61448669
18.09236145 26.19445801 32.97441101
17.7047348 26.48416138 32.72122192
17.40992737 26.56326294 32.40403748
17.60947418 26.50115967 32.76286316
18.05162048 26.2074585 33.35241699
17.46762466 26.54580688 32.72061157
17.33853531 26.5161438 32.7883606
17.43444824 26.47106934 32.86425781
17.79740143 26.34594727 32.63751221
16.38227463 26.50405884 33.04100037
17.50636292 26.0897522 33.35119629
17.48038483 26.22109985 33.17611694
17.91905212 26.22149658 32.73895264
17.69114685 24.70355225 32.58456421
17.00408936 26.07858276 33.70881653
16.987854 26.08370972 33.5914917
18.02291107 24.91217041 32.73184204
16.74806213 26.54067993 33.44700623
16.86472702 26.62271118 33.57606506
16.90963745 26.60180664 33.72566223
16.97529602 26.71868896 33.63188171
17.05644226 26.71746826 33.82591248
16.78994751 26.29888916 33.45422363
17.02497864 26.18209839 33.91680908
16.97914886 26.14590454 33.81217957
17.11973572 26.12860107 33.89807129
16.76845551 26.39855957 33.5165863
17.43769836 25.9954834 33.78684998
17.54166031 26.0229187 33.54795837
17.18970871 26.03060913 33.67230225
18.1741066 24.88076782 32.84411621
18.30119324 25.83755493 33.14292908
18.26688766 26.00720215 33.17485046
18.5688324 25.48049927 33.59396362
17.43253326 26.02078247 34.24754333
17.26885986 26.05108643 33.88764954
17.21357346 26.84893799 33.7097168
17.16703033 26.78146362 33.74588013
16.46297455 26.4836731 33.18374634
16.86714935 26.22070313 33.7769928
16.91475677 26.65966797 33.64375305
16.79532623 26.50079346 33.57513428
17.38609695 23.57012939 32.31326294
16.83916855 26.53729248 33.66860962
16.91996765 26.2130127 33.8971405
16.20339203 24.6937561 30.86981201
17.1018486 26.07693481 33.79319763
16.94669724 23.79815674 31.55081177
17.17163849 26.1210022 33.41285706
17.48168945 24.64776611 32.39950562
17.30336761 24.590271 32.14379883
18.58535004 25.39852905 33.70675659
14.77254486 25.73876953 29.24717712
14.88067627 25.9513855 29.34779358
14.89503098 25.99465942 29.38269043
17.56729889 21.24563599 32.07170105
16.92051697 21.14321899 31.36091614
17.16665649 25.68484497 31.84565735
17.09806824 25.4887085 31.76139832
17.28337097 23.27362061 32.11935425
17.18946075 23.31329346 32.01313782
17.08476257 23.52337646 31.78887939
17.54479218 24.03097534 32.5189209
17.62634277 24.11203003 32.58616638
17.05331421 25.27722168 31.68081665
17.06632233 25.13458252 31.6505127
16.95895386 23.27255249 31.62741089
16.93908691 23.49725342 31.57156372
16.80524826 23.47796631 31.41181946
16.43083572 23.88070679 31.00953674
15.63184357 26.64660645 30.41143799
15.70988464 26.5118103 30.44940186
16.72822571 24.56542969 31.2947998
16.66584396 24.18658447 31.23988342
17.09568787 23.85430908 31.79776001
17.24578857 24.42996216 32.03561401
17.31388092 24.35992432 32.19541931
16.71865845 23.73028564 31.30078125
17.02747726 23.66815186 31.67346191
17.01865387 23.45471191 31.68882751
17.06526947 23.36734009 31.78645325
17.21466827 23.13644409 32.03363037
17.20017624 26.03112793 31.91017151
17.27033234 25.91213989 31.9553833
17.17527008 25.85476685 31.87641907
16.75871658 24.38406372 31.3324585
17.39027405 24.50238037 32.30213928
17.00308228 25.62341309 31.6517334
17.07239914 25.67132568 31.74604797
17.09075546 25.79208374 31.7827301
17.2146759 22.53219604 31.58979797
17.83956528 23.45550537 32.72616577
17.7539444 23.60610962 32.66229248
17.75454712 23.42428589 32.61885071
17.13964081 24.94647217 31.8707428
18.03284454 23.37283325 32.98727417
17.97515106 23.48492432 32.91053772
17.93810654 23.37496948 32.84606934
17.2416153 24.56600952 32.01446533
17.31605911 24.02764893 32.23886108
17.03242493 23.04534912 31.71809387
17.1267395 23.03326416 31.89927673
17.12020874 23.25015259 31.90890503
17.6075058 23.71499634 32.5670166
17.65120697 23.91503906 32.58856201
17.37809753 23.08081055 32.17219543
17.58202362 23.14657593 32.30162048
17.38919067 22.91018677 32.19116211
17.11678314 22.52954102 31.44515991
17.20034027 22.23413086 31.49186707
17.20818329 22.44464111 31.53639221
17.89529419 23.5609436 32.80747986
17.76167297 24.03527832 32.66737366
17.31819534 23.88363647 32.24642944
17.80677795 24.19961548 32.70988464
17.60155487 24.82754517 32.47007751
17.49198914 24.85180664 32.35862732
17.86200714 23.3024292 32.71452332
18.54482651 25.30316162 33.24223328
17.20587158 24.90332031 31.99172974
16.6130867 25.78353882 31.22045898
17.03538513 26.02130127 31.77137756
16.94994736 26.05563354 31.68901062
17.53408813 25.49661255 32.18066406
17.01807404 25.90817261 31.72711182
16.91993332 25.92739868 31.63375854
17.08228302 25.89605713 31.80134583
17.11873627 25.98065186 31.83514404
17.29278946 25.77529907 31.96478271
14.26842499 26.9979248 30.84408569
14.34174347 26.91247559 30.77813721
14.22352219 26.95837402 30.70874023
16.82636261 25.96209717 31.53547668
16.67282867 25.69476318 31.30761719
16.86412811 26.06842041 31.59844971
16.78419876 26.07122803 31.51219177
16.77947235 26.21435547 31.53384399
16.75289154 25.58370972 31.38607788
15.98278809 25.54858398 30.34587097
16.5766449 25.42056274 31.25508118
16.48251724 26.17059326 31.07801819
16.49956512 26.29922485 31.13896179
16.61932373 25.94430542 31.22293091
15.26313782 26.93630981 31.79611206
16.03321075 25.37921143 30.60627747
15.84705734 26.42025757 30.63186646
15.95643234 26.25637817 30.66746521
16.01702118 25.25082397 30.49435425
16.22637939 25.78598022 30.84399414
17.58488464 21.93161011 32.042099
17.35991287 22.02383423 31.6776886
16.4284935 26.25592041 31.04632568
16.39164734 26.16949463 31.00431824
15.36274719 26.56600952 30.04623413
15.53707123 26.41824341 30.09516907
15.44780731 26.6423645 30.14212036
16.28251648 25.71447754 30.93392944
16.00543213 26.71789551 31.30062866
16.12319183 26.73812866 31.37031555
6.484855652 15.71090698 22.828125
