# .PCD v0.7 - Point Cloud Data file format
VERSION 0.7
FIELDS x y z
SIZE 4 4 4
TYPE F F F
COUNT 1 1 1
WIDTH 1340
HEIGHT 1
VIEWPOINT 0 0 0 1 0 0 0
POINTS 1340
DATA ascii
39.91882706 5.479873657 1.918264627
38.29848862 19.89477921 14.54934788
39.87142563 4.806045532 2.077190638
39.71603394 3.955280304 1.998419046
39.07406998 14.01538086 17.2876339
39.75130463 4.391506195 2.300539494
39.71741486 4.210666656 2.218857288
39.78383636 4.410953522 2.172821045
39.86395645 4.678981781 1.848497629
39.19225311 11.16790009 16.80989456
39.2795639 4.399803162 1.562939882
39.8139801 4.324363708 1.922766089
40.03211594 5.735980988 2.235306501
39.58316803 19.91704178 25.84492111
34.12449646 11.73127747 5.821379662
36.75886917 4.026454926 1.341928005
40.32891083 6.569137573 2.792949677
39.98899078 5.442928314 2.280781031
39.94510269 5.16897583 2.356848717
37.34262466 19.80638885 30.76186943
41.06791306 19.92968369 24.47114944
40.76206589 19.79109573 24.34928703
40.78661346 7.528606415 3.811478615
40.9414444 8.008644104 3.983864307
40.35884476 6.385173798 3.17724061
39.43566513 19.85043335 14.99214745
40.55476379 7.093730927 3.28513813
45.04234314 20.68953323 14.98450661
40.28901672 6.344009399 2.903848648
39.63633728 12.0274353 16.65927124
39.57583618 11.8243103 16.70480537
39.68423462 4.374202728 2.596089602
39.53082275 4.099601746 2.628949165
39.79760742 4.639041901 2.525812387
39.6836586 20.11002731 30.57112503
39.98889542 5.18667984 2.946432114
40.04556656 5.371707916 2.858874321
38.73741913 20.15655136 15.27707767
40.12800217 5.813030243 2.699289083
40.10063553 12.31281662 19.28411865
34.00379181 12.17346191 6.915212154
40.0881958 5.581893921 2.77505827
40.00486755 5.352424622 2.561490774
38.15956116 5.022842407 2.634074211
39.60808563 4.403610229 2.980287075
40.46134949 6.345966339 3.724514723
39.4420166 20.09300995 30.89048386
40.47296524 6.33846283 4.064167976
38.88375854 17.33994675 30.95125961
38.68896103 19.65842056 17.27359962
41.71181488 9.747806549 5.3732934
40.86506653 20.70262146 27.05994415
42.48165512 11.33615112 6.890394688
30.36026001 20.26751709 12.89465714
41.8881073 9.98960495 5.821278095
41.01604462 7.872661591 4.390419483
40.73055267 7.079265594 4.031374931
44.9691391 17.33505249 11.23980904
37.89584351 19.61344528 31.15212822
45.73932648 19.11469269 12.32296181
45.82286072 20.12995529 11.89362907
42.49817276 11.24865723 7.323832035
44.43359375 15.99419403 10.13232136
39.62897491 20.26984406 22.30173111
43.09434128 12.74340439 7.984050274
41.18267059 8.098423004 4.897025108
42.06025314 10.22891998 6.316647053
41.61876297 9.101142883 5.724197388
44.42616272 16.27984238 10.58786488
37.67671585 21.0287323 12.7147398
43.25415421 13.42092896 8.751181602
46.24629211 20.27879333 14.15097141
39.05551529 3.764598846 1.270331383
42.90930176 12.35954666 8.069676399
39.18817139 7.601474762 6.659320831
37.8625145 3.657428741 2.017970324
39.46582413 5.171730042 3.915719748
39.73715591 5.716308594 4.145323753
37.58705139 18.5473938 31.29881477
39.59669876 19.45678329 25.2816124
39.76977158 6.159763336 4.643062115
37.09762955 3.912899017 1.105185509
39.49899673 4.796264648 3.462773323
39.47318268 19.29130173 24.74667549
40.51464081 7.328567505 4.970169067
46.29824448 20.47075272 13.15042114
41.20157242 8.806739807 5.835859299
40.0109787 5.442901611 3.783177853
39.51284409 19.38498306 22.92314911
41.54870605 9.40499115 6.209996223
39.34790421 20.55739212 30.64595985
37.5033493 5.245483398 1.807320595
39.58577728 20.87570953 22.79159355
40.57438278 6.970027924 4.729562759
41.18294907 8.29617691 5.53819418
37.85435867 17.81853867 31.00242805
39.16638947 3.810329437 2.826829195
39.05711365 3.568958282 2.600957632
40.05290985 20.11727524 24.88647461
39.04024506 7.820053101 8.067453384
39.21590042 4.079483032 3.02027297
38.89978409 3.680675507 2.806138992
39.01147461 3.73600769 2.823460817
39.28769684 4.729972839 3.594323635
39.16915512 21.04756927 13.36714458
39.02909088 3.968257904 1.72488153
39.0128479 4.243507385 3.276298046
39.61415863 19.26787186 28.32302856
38.78935242 15.62089539 12.0468483
39.24820709 4.414535522 3.279354572
37.8326683 11.45390701 19.43836212
39.79279709 12.20676422 16.77159119
40.54534912 19.67632294 27.0086174
39.24510956 4.250228882 3.137423277
38.27059174 4.05721283 3.532498121
39.40656281 18.59789276 26.37232018
38.64846802 3.953411102 3.216504812
38.57987595 3.815124512 3.06009841
39.96988297 18.74260712 30.33440018
38.73600769 4.539581299 4.062685013
37.35044861 19.27161407 30.91884995
38.69263077 4.176372528 3.509746075
39.04857254 3.976772308 2.998211861
38.97648239 4.000148773 3.053030014
31.31809998 20.19814301 13.32851219
39.3182869 5.783321381 5.23697567
39.53294754 19.48748779 22.35622597
39.0893364 5.116867065 4.588150024
38.70766449 8.732891083 12.25068283
40.15235138 12.04844666 18.36220551
38.9900322 7.26039505 8.818265915
38.11271286 16.74915695 29.40425491
39.02927399 5.65304184 1.760752797
38.4769249 4.988536835 5.130293369
38.36342239 5.212478638 5.620625019
37.64277649 18.14070129 31.14533234
38.62351227 5.442752838 5.852458954
38.07170868 20.03352356 14.27721214
38.58129501 6.330036163 7.619112015
38.79918289 6.836372375 8.318353653
39.65434647 18.82830048 30.75356865
39.07645035 8.412788391 10.67629242
37.31809235 18.41208267 30.76124954
39.05479431 10.68393326 14.99037647
40.17684937 14.85900116 23.31506729
39.05011368 10.12627411 13.9877634
39.05276108 10.42225647 14.36214542
37.73563766 13.27201843 16.22621155
39.49232864 18.87062836 27.26717186
39.27610397 6.28099823 6.141023159
39.36396408 8.130767822 6.42264843
39.1109314 8.001270294 9.241725922
39.1713562 7.372432709 8.119669914
39.17669678 6.931690216 7.625197411
39.12646103 7.564464569 8.917800903
39.01001358 11.4801178 15.6039238
38.99663925 10.94556046 14.64031792
37.12975311 4.008308411 1.123020887
38.98405075 11.20039749 14.97075176
39.78886414 19.61052704 26.59035683
39.01890182 10.62062836 14.22762585
39.0353775 10.90094757 14.90810204
40.98295212 20.22940445 24.09443092
36.44531631 5.939430237 2.615689278
39.00122833 9.538757324 11.93564987
39.67358398 19.88110733 30.6507988
39.55620193 19.2958107 28.21699905
39.03786469 9.099464417 11.29214573
38.18144989 17.91901779 31.33611298
39.06697845 9.065036774 11.62872887
39.05169296 9.697719574 12.77407074
40.16801834 12.35842514 18.32694817
39.48968124 19.96881485 19.46312141
39.42451096 7.610084534 6.107409954
39.55388641 7.225067139 5.849673271
40.8173027 20.42518997 24.81648636
38.94166565 10.83358383 14.06732273
39.06618881 17.63797379 31.08901215
39.61612701 6.058853149 4.824863434
39.01202393 8.836772919 10.49528885
38.83121872 17.22068405 11.99838161
38.87826157 8.814464569 9.982926369
38.9276619 8.338890076 9.135786057
39.43832779 6.498054504 5.850433826
39.45590973 6.869235992 6.19607687
39.70245361 6.834651947 5.538023472
37.64550781 20.61954117 30.47154236
39.26361084 11.80299377 20.13253593
39.27902222 7.149726868 7.162266254
39.08006287 8.006626129 8.683954239
39.68180466 20.28123474 26.20861244
39.22131348 7.41053009 7.07470417
38.85930634 10.49909973 10.0771246
39.11798859 20.04142761 30.99588776
38.86544037 8.911418915 9.404309273
37.73065948 19.85289764 30.96920586
38.87374496 12.16398239 14.41708374
37.41840744 18.88093185 31.12967682
37.78902435 20.61714935 30.56667709
39.10808945 3.600017548 1.144970536
38.88573837 12.57197952 14.61134148
42.26993561 11.80488205 5.81919241
38.85450745 11.29223251 13.78296566
38.83322525 11.74863434 13.47599792
34.99917984 9.092681885 6.076242924
39.40501785 13.18225861 16.96040916
31.18928909 18.57712555 11.63478661
39.29291153 19.66385269 14.07880497
38.89629745 10.48156357 13.23628521
38.84329605 9.262645721 10.50003815
38.92723083 11.46313858 14.83769894
39.36772537 19.53086472 18.02275276
38.85183716 10.85639954 13.30999088
38.81360626 10.52968979 11.78834438
37.72014236 11.53437805 16.51955986
38.82801056 10.658638 12.58484364
39.48210526 19.680233 30.81002235
39.23978043 12.08934784 16.33973694
39.99502945 13.78443527 19.38876534
39.28468704 12.15157318 16.36818886
39.28998566 12.05486298 16.41473198
38.41508102 18.45468521 31.54807091
38.92624283 16.02514267 19.90203667
39.2878952 12.29411316 16.35230255
39.53843307 17.95028305 30.90345764
39.91033936 11.37137222 17.52744102
39.17312241 18.19092941 24.92368889
38.27721786 3.66626358 2.277976274
39.23991394 12.27903366 16.2894249
33.33887482 14.28427505 7.291018963
46.22669601 20.22468567 13.32438183
39.06742859 11.9275589 16.01971626
39.53813171 20.24039459 19.62483597
39.00866699 12.58533478 15.59436131
38.99155426 12.35540009 15.50825596
39.14850235 12.32009125 16.09216309
39.06837845 12.32515717 15.84278202
38.97281265 11.88845444 15.31136227
38.85414124 15.4206543 9.976158142
39.13785172 12.17971039 16.05388069
38.02106857 19.79442215 14.89508057
39.04624939 12.78853989 15.7010622
39.30994415 12.69745255 16.31674004
38.92798996 17.19433594 30.74725151
39.27598953 12.42478943 16.30223083
39.36166763 12.40940094 21.24063873
39.64970779 20.05072403 22.56949806
38.91404343 18.07440186 23.72749901
39.88214874 12.31388474 16.88829231
39.79004669 12.37152863 16.78769112
46.29935074 20.57273102 14.01848125
39.82349014 12.45372009 16.86450577
39.74063492 12.23260498 16.72017479
41.10362625 19.98317337 24.60624313
37.66373825 17.60428238 30.44376564
45.93695831 20.2466011 11.99446774
39.60292816 12.55453873 16.65925217
37.70711899 20.20178604 30.97588539
39.31981659 17.46052551 24.48653984
39.27601624 20.8673172 19.30207634
39.67707062 20.73996353 24.664814
39.72080612 12.38358307 16.72211647
39.48607254 12.21205139 16.50946617
30.49369431 20.15764999 12.30610752
41.002491 10.11080551 6.892857075
39.53968048 12.11137772 16.55511475
37.76659012 20.07788849 30.98182869
30.69415283 20.01554489 12.22118187
39.35638809 12.34914017 16.41189194
39.57368469 12.20867538 16.57715416
40.6819725 20.78137207 24.1586628
39.51283264 12.41596603 16.54732132
39.59918976 12.31300354 16.60855484
34.90874863 11.18946075 5.313853741
39.56429672 12.04646683 16.59436417
39.50650787 12.06741333 16.54550743
39.93482971 12.14555359 16.95470619
39.83985138 11.95908356 16.90211487
37.18815613 3.911231995 1.122377872
40.17525101 11.01127625 5.357654572
41.06791687 17.64218903 10.76539612
39.82754898 11.8301506 16.95828438
39.41214752 11.2771492 16.92169189
39.51712036 11.40777206 16.91058731
39.55354309 20.00823975 21.47245789
39.47179413 11.2640686 16.98811913
38.87090302 5.279502869 2.449199438
39.546978 11.55357742 16.83630562
39.60927963 11.52766037 16.91200638
39.64496613 11.7975235 16.77779198
38.97340012 13.04855347 15.40525055
31.85824203 16.88432312 11.16065884
39.00227356 13.63768005 15.76325512
35.14237976 20.42804337 13.65292358
39.20422745 12.91128159 16.15828323
38.73869324 19.75574493 19.83844185
39.28057861 3.732479095 1.138364673
39.31907272 12.81733322 16.36338043
40.67764664 19.71212769 26.92525864
39.09029388 13.83768082 16.97550011
39.51442337 19.43315887 20.92023277
39.09653091 13.74260712 16.67318726
39.73053741 11.24186707 17.3780098
39.20077896 13.43506241 16.6463871
38.246521 20.1986084 31.009058
37.23823547 20.09613037 13.38472939
35.99713516 20.25587845 11.62325096
39.08143234 13.71355438 16.41238785
39.06771088 13.672966 16.21571732
38.81811905 5.470470428 2.321715355
39.82225037 12.59536743 16.96532249
40.87992096 20.03143692 24.12164497
41.55347443 20.47190475 13.73684502
39.61794281 12.62067795 16.70406723
37.6949501 11.7638588 16.41719437
39.57921219 12.8793602 16.85894203
39.42447281 12.81489944 16.5343132
39.78359604 12.78271103 17.09257126
39.66213226 12.90422058 17.0298214
38.83154678 5.639701843 1.986300111
39.75860596 13.09477234 17.4695797
39.07568741 19.81831741 30.98083878
39.66390228 13.17031097 17.39413643
39.17485809 13.63975906 17.08625031
39.18941879 14.0275383 17.99905586
39.46266937 13.53281784 17.51586151
38.38525391 17.65890121 31.08218575
45.6240387 20.6963501 12.44467163
44.9839859 20.32241821 14.18987274
39.69211578 20.58243561 17.05460358
39.46442413 13.50631332 17.48814392
39.44561005 13.53230286 17.4948349
46.14173126 20.68722534 13.96636009
39.50101471 13.433918 17.47717857
39.33349991 13.80537796 17.91005135
39.48472214 19.59472656 30.82696724
37.772686 11.49023056 16.30657196
40.26990509 20.852314 24.36197472
39.46499634 13.46143723 17.4641819
39.47932816 13.78974533 18.00018501
35.50481415 9.021373749 3.914167881
39.54384613 13.84056854 18.21388435
39.70560074 15.29561615 21.2099247
39.63386154 14.94031143 20.39609909
38.20347214 10.80333328 17.41514587
39.72452164 13.99596024 18.90047073
39.76453781 18.3993721 27.25976563
35.67728424 20.4191246 14.42525578
39.68453598 19.04115677 28.05808258
40.16602707 19.72446442 24.14447594
39.09103394 16.77074432 10.4654274
39.84731293 16.04642487 23.04098511
35.73457718 7.586898804 4.381349564
30.97705078 19.3531723 11.4449501
39.69016266 17.19841766 24.70519638
39.75502777 16.73994827 24.03324127
39.23807144 17.16366577 23.82348442
37.7442627 12.98323059 16.05418205
39.72829437 16.02410126 22.61808777
39.9360199 13.57276535 18.77135468
40.21416473 20.15149307 23.90844154
30.74872589 19.84578323 12.22361469
39.91988373 14.24115372 19.90839195
39.31498337 20.0855217 30.96204376
39.82873535 14.72219849 20.49342537
40.74902725 18.1063118 9.97191143
40.74103928 15.09425735 9.06498909
40.02207947 12.30991364 17.25914764
40.03940201 14.02899551 20.07843208
40.05620956 13.25761032 18.78721428
37.39735413 19.93385315 30.8271389
40.87242889 19.93305206 24.78267288
40.09532547 12.71259308 18.17757225
37.79499435 18.1050415 31.33306694
40.13206863 12.79867554 18.57275009
38.96344376 17.79572296 23.82314301
40.01604462 12.03784943 17.11289978
39.7610817 19.24497604 28.95619011
39.93250275 16.23734283 23.82032967
39.99625397 15.06697464 21.8356781
40.18300629 13.27849197 20.10622406
40.19934464 13.63996124 20.93380737
40.10889816 15.50126648 23.73534012
41.13608932 20.34795761 24.49970818
39.51638794 3.940494537 1.121493578
40.09380341 15.14163971 22.80669212
38.08441162 20.24198532 30.99796486
37.16668701 16.49123764 23.8627243
38.80046463 17.27691269 30.95594597
40.06491089 14.38208771 20.94766617
40.08327484 14.72891617 21.82533264
40.12018204 13.61594009 19.93883133
40.0185585 12.17354965 17.15005302
40.11586761 11.99704361 17.63168335
40.0919075 12.06581116 17.48861504
40.06133652 11.90849304 17.36232567
40.0447197 11.72005081 17.42706299
39.16563034 18.62021637 31.42700386
39.80033493 19.40300369 30.25785446
40.18743515 12.26726151 18.6536293
40.15680313 12.06998062 18.07409668
39.39448929 4.750457764 1.343028545
45.32264709 20.90657043 13.50984478
40.13808441 11.99134827 17.8197422
39.693573 11.08290482 17.80835533
40.01017761 11.57620621 17.5021286
39.88656235 11.33916855 17.73511887
39.92095566 11.45103073 17.91235733
38.69599915 16.21987534 29.25955391
46.29072571 20.61273956 13.6362114
37.19402695 20.11618423 27.9244175
39.57092667 19.48632813 28.02079582
40.10783005 11.85802841 17.69958687
40.06884384 11.72071838 17.7634449
40.05934525 11.70325089 17.59360313
36.29453659 10.27885818 4.891949177
40.21313095 13.35165787 20.6321125
40.19363785 12.92481613 20.06143379
38.64882278 3.911643982 2.375088453
40.15824127 14.25688934 22.59077454
40.17854691 13.48034286 21.11369705
40.15377045 12.56953049 19.59441566
40.08559036 16.664505 27.31837082
40.02706528 14.78965378 24.32081032
30.99795151 19.61730957 12.03358269
39.98470306 16.04070282 26.83634186
40.94694519 20.65587616 24.59915543
40.12445831 15.51890182 25.05542564
37.30661774 19.0531311 30.71651268
37.41237259 19.81913376 13.39540768
38.27525711 19.79186249 14.82703781
39.85509109 12.2935257 19.99349022
32.04963303 20.94779968 12.89337349
39.24042892 18.56264496 31.37594795
39.70824051 11.93238831 19.62835312
39.27002716 11.56304932 16.63851738
40.04542923 12.51729965 19.88011742
39.86802292 14.19456482 23.74849701
39.99025726 13.98058701 22.93173409
40.10280609 13.69684982 21.91170502
40.07835007 13.14342117 20.97967339
37.85517883 18.05236816 31.34043503
39.6903801 12.72648239 21.28656197
39.52497864 11.50461578 19.14239883
39.83862305 14.78958893 24.98373795
40.72996521 19.74244308 27.12209129
46.31741333 20.47933578 13.75488949
39.75735092 13.515522 22.70821953
32.55075836 14.97153473 9.573791504
39.99692535 17.34057617 29.07414436
39.91917801 16.99666214 28.77729988
45.76821136 20.74389267 14.26020145
39.87243271 17.36373138 29.53338432
39.40045547 16.62042618 29.34112167
39.28915024 4.459495544 1.4215101
46.14526367 20.10612869 12.8660183
39.51626205 16.49620819 28.92093658
39.43096542 17.02054977 30.00167084
39.46935272 17.30739212 30.39270592
39.55484009 15.80045319 27.54552841
39.46876526 15.19106293 26.54721451
30.5737114 19.9533577 12.51836586
39.62026215 16.37434387 28.47275543
39.82443237 15.36547852 26.11367226
43.0416069 20.69477463 14.43352604
39.77622986 16.00679398 27.42919922
39.9707489 18.14932632 30.33456421
39.8444519 18.18074417 30.62111664
39.91341782 18.22968674 30.54243088
39.90687943 18.35772324 30.62073708
39.90179062 17.8796196 30.20061302
45.70394897 20.46313477 14.89406109
39.81103897 17.6179924 30.07420158
39.5490799 18.06942368 30.9155159
39.55493164 18.18601608 30.91511726
37.6086235 3.684001923 2.78318119
39.25906754 4.143592834 1.40555954
39.53891754 17.83207703 30.84822273
39.92881393 19.58167648 26.84482193
39.4348526 17.84553146 30.96444893
36.9725914 3.734798431 1.229701161
39.75657654 18.29058456 30.76917648
39.49226761 19.50615311 19.17747498
39.64799881 18.09054565 30.83735275
39.75862122 18.14469147 30.72527695
39.32617569 17.34802628 30.68647575
39.39204025 17.62298965 30.90116882
39.49794006 17.52599716 30.63209343
39.09154892 18.39096451 31.39868927
39.5144577 17.69084167 30.77523041
39.64196014 17.81260681 30.67303848
39.74139404 17.82852554 30.5008812
39.27975845 17.44256592 30.85896301
39.7530365 19.55814743 23.04844284
39.32968521 17.66244507 30.98359108
39.11475754 17.51686859 31.02392578
39.22502136 17.50782776 30.95714951
39.26113892 17.89548111 31.03425217
38.77720642 11.8740921 20.69232559
39.34383011 17.86649323 31.01709747
38.81741333 17.74188614 31.12466812
36.54017639 6.199180603 2.146654129
38.9958992 17.62046432 31.10416222
37.96341324 20.27622223 14.3807888
38.97135925 17.74389267 31.09835815
39.06554794 17.78715515 31.07933807
39.24894333 17.71040344 31.04154968
39.14463425 17.35322952 30.85165215
38.93807602 19.61172867 31.08355904
39.02092361 17.51304245 31.05264664
39.55384445 4.290576935 1.179400563
38.83227921 17.42012024 31.04383469
39.09073257 20.23167801 30.96809578
38.5681076 17.72304153 31.1544342
38.12936401 11.08412552 19.00631714
38.30138397 3.547523499 1.401729941
38.66638565 17.67747879 31.13416672
38.33370209 17.7182045 31.13416672
37.95359802 10.66453934 15.68233395
38.79521561 17.63051224 31.13002396
38.57746506 17.50611496 31.04711723
39.02256393 4.963764191 2.448877573
39.6733284 20.79429245 15.55676556
38.54673767 17.45059204 30.98105431
37.26983643 18.59022903 26.51132774
37.29777908 13.20116425 22.10239792
38.85661316 15.36026382 15.09379101
38.23535156 17.59929657 30.92528343
38.43144989 16.48125839 29.35151672
38.32112503 17.6100235 30.99269295
43.05504227 20.4323082 13.56339169
38.71562576 16.97986221 30.57615852
38.66139221 16.46670151 29.72187042
39.57048416 20.50134277 25.38000298
38.7611351 17.14093399 30.81591988
38.80736542 17.01140213 30.61143684
38.69815826 17.08971786 30.72589684
38.67108154 17.20968628 30.85687447
45.30115509 20.79814911 12.49787521
38.12334824 20.15485382 31.00844383
39.08583832 17.11514664 30.52117157
39.86240005 18.83776855 30.57054901
39.15940857 16.86344147 30.04232597
38.72729874 17.41010284 31.06905746
37.7972641 17.20091629 11.60913849
38.94690323 16.93191528 30.33246613
40.00763321 19.63085556 24.23213768
38.28640366 17.16518021 30.30203247
38.44700623 16.93622589 30.13687515
38.51106644 17.37204361 30.85618401
38.67653275 17.41427994 31.05412292
38.71240234 17.37220764 31.04633522
38.70048141 17.33261108 31.00862885
39.71111679 18.89191055 30.60666656
37.91760254 18.138237 31.43497086
38.26211548 12.3454628 21.5541954
38.47303391 14.65747452 26.14842796
44.3939209 17.3262558 11.37681961
38.52380753 14.01873779 24.96400642
38.0300827 12.53580856 21.70158195
38.94638443 3.47844696 2.495371819
38.63475037 16.12402344 29.07903481
38.66604614 16.30321121 29.43322754
39.32486725 19.83450699 30.9080658
38.11380768 16.07128525 28.21245766
39.14176178 4.817119598 2.333688259
38.18378448 14.79534531 26.02599716
38.25567245 16.2401619 28.68783951
40.36995697 20.81867599 24.51663971
38.44842148 15.26626587 27.23383904
38.42014313 11.09284973 19.12838364
38.83805466 13.74603653 24.38841248
38.79252243 12.31087112 21.56715775
40.01262283 18.53894043 30.11135483
38.66453171 14.57359695 26.08425522
39.03398514 16.12423706 28.80721283
39.06926727 14.10085678 24.93412971
39.04332733 15.62055206 27.85344696
38.93776703 14.6078186 26.00235176
40.07601547 20.40490723 23.82942963
38.69615936 15.84472656 28.55465126
38.8590126 15.81847 28.3737812
38.77389145 15.20304108 27.26238251
38.41016006 17.78029633 31.2129879
38.83847427 19.49339294 31.17014885
39.55436707 19.38254166 25.4783287
38.76218796 3.418094635 2.391288519
40.59263611 20.81238174 24.19839859
38.25137711 17.87024689 31.29781151
39.60303879 20.79647064 22.41345406
38.33550262 17.8187294 31.25148964
37.27341843 19.81437302 30.59498024
38.25287628 17.75478745 31.15822983
37.85586166 18.19820404 31.43489456
40.65114212 20.12594604 12.49316978
40.26272583 20.42431641 13.32609558
37.94235611 18.21831894 31.47028732
37.98073578 17.53284454 30.63320923
38.1170845 17.65850067 30.94356728
37.98192215 17.89663315 31.23561096
37.45406723 19.99349976 30.87730408
38.09505844 17.85718155 31.24178314
38.16373825 17.80789185 31.20079803
37.87973404 17.65176773 30.74659538
37.72079468 17.76710892 30.76390457
37.79788971 17.7858963 30.88467216
38.84141159 20.67127991 30.57541847
37.78519821 18.27371979 31.41825676
42.32467651 12.94672394 8.477972031
39.51681519 20.75009918 24.35136795
38.66788101 17.78619766 31.18606186
37.68751907 18.15225601 31.23064423
37.80570984 18.03440094 31.27636909
37.5028801 18.1661911 30.9295826
40.54535675 20.82770538 24.33050346
37.55018997 18.14618683 30.98704529
37.66748047 17.99021912 31.02145004
37.60548401 18.06468582 31.00723076
37.59955597 17.99769974 30.9350605
37.58374786 18.22455978 31.11135674
45.53422546 20.75772858 14.35728168
40.25661087 19.68730545 26.71245193
37.76053619 18.01319122 31.19357872
39.89757538 19.95072174 23.65899467
37.70236588 18.0700264 31.17242241
37.71640396 17.9961853 31.10571671
39.29812241 15.48564529 27.35255241
37.74269104 17.39806747 30.17837334
37.82828522 17.13057709 29.79003525
37.58449554 17.7695694 30.61207581
40.86328506 19.79467773 27.14690971
37.56516266 17.28722763 29.81134224
39.49757767 19.34370041 24.06029892
39.90314484 11.74026489 17.15991402
37.39996719 18.25770187 30.83996201
37.44012833 18.1498909 30.85891724
39.45486832 18.72784424 26.826931
37.31114578 18.10351944 30.70960999
37.29630661 18.21358871 30.75424004
37.47669601 18.050457 30.8380928
39.23169708 19.22697067 31.17771339
37.53045273 17.93006516 30.77121544
46.05641556 20.13920975 12.45454597
37.12753296 17.98233795 30.33595276
36.17673874 15.91194153 9.578308105
37.7352066 18.65699387 31.39342499
33.62880325 12.85886383 7.796894073
37.22557449 17.7745018 30.19103622
37.23994827 18.1096611 30.64405823
39.09841537 13.71837234 24.16758347
37.27604675 17.24271774 29.39749527
37.18014145 18.05596161 30.51528931
37.45677567 17.87817383 30.62049675
39.76934433 20.27812576 12.77586365
37.33638 17.99645233 30.6329422
37.44621658 18.3324852 30.9113884
46.2349472 20.25775528 13.12496758
37.52724075 18.31933975 31.07006264
37.78923035 18.3870163 31.4381485
37.71606445 18.35545731 31.38645172
37.79705811 19.74806976 15.46967316
37.64948273 18.44775391 31.34514999
37.65981293 18.3422699 31.31789017
37.61201477 18.33135605 31.23885536
34.86100769 9.251274109 5.97371912
37.38225937 18.9756813 31.07799911
39.1544075 10.73113632 6.392755032
37.44329453 18.64746094 31.08493996
37.39820099 18.75927353 31.02838898
37.89157486 14.90444946 25.86810303
38.96488571 18.91422272 20.97371292
37.45877075 18.79092789 31.17553329
37.53923416 18.63129425 31.25682449
37.55232239 18.43094254 31.19164848
37.5378952 18.5418129 31.2236042
37.4085083 18.32769012 30.85115433
42.85395432 14.92183685 7.906104088
37.39836884 18.52200317 30.8907547
38.35215378 20.23941422 31.00368881
45.95942688 19.94027328 12.36707687
37.33432007 18.51329803 30.75802994
37.33902359 18.6223259 30.76746178
39.58644867 19.61091995 28.38759613
37.33972168 18.97896194 30.91701317
37.3271637 19.08045959 30.86535263
37.91689301 4.065006256 2.546566486
39.99776077 19.66765976 24.65011406
37.37457657 18.75291443 30.9441967
43.5791626 20.6544075 14.86145401
37.28160858 19.03278351 30.60330009
39.55127335 18.40327072 30.91175842
43.73932266 17.30171585 11.02197456
37.31484985 18.72971725 30.71928024
37.29756165 18.83348083 30.67584991
45.85380173 20.10691071 12.03569603
37.35500336 18.74519348 30.86268997
37.3312149 18.85428619 30.81007385
39.82525253 18.95061874 28.85012627
37.33620071 18.7369957 30.78621674
37.42425919 19.62408829 30.78366852
39.67031097 20.72622299 22.84224701
37.40069199 19.54929733 30.78258133
39.6087265 20.75292587 16.17951393
37.45536041 19.66279602 30.81807899
39.11645126 4.169067383 2.009306908
37.3499794 19.40313721 30.71984482
38.29325104 18.96408081 31.44807434
34.21191406 11.68359375 5.703688145
37.40106201 19.4929657 30.85056496
37.38274384 19.48217773 30.79672623
36.79637909 18.61719131 10.21535015
37.37089157 19.42317581 30.83177567
46.28573608 20.43785858 14.7213583
42.80300522 12.80873871 6.939332485
37.28944397 19.08626556 30.61972809
37.31564713 19.16072845 30.74552727
35.81607056 20.42638397 14.60848045
37.78629684 4.168869019 2.545525789
42.55332565 12.16271591 6.64548111
37.31724548 19.30337906 30.6560936
37.33552933 19.34724045 30.70049858
39.4250412 19.28127289 24.11677933
37.36837769 19.17607117 31.02936363
37.34718704 19.18551254 30.96659851
37.35913467 19.35125732 30.87304497
37.33414841 19.18167114 30.89374924
37.32945633 19.25986862 30.77658081
39.62797928 18.78516769 30.85129547
37.34719086 19.34416199 30.80571175
37.51511002 19.79491425 30.83838844
37.49962616 19.65764618 30.87849426
37.63320541 19.88515854 30.90439796
37.65751648 19.83511353 30.93104935
37.4343605 19.23116302 31.08010292
38.94240952 16.99622345 22.59523201
37.44052505 19.32794189 31.04156303
37.63468933 19.59961319 31.05112267
37.590065 12.30322266 16.54789925
37.53191757 19.46752548 31.0479641
40.22592926 19.67248535 24.32062531
37.46122742 19.49629593 30.95282555
40.07094193 20.8275795 24.10805702
37.915802 19.83047867 31.05763817
38.0164299 19.7691803 31.10832787
37.75514221 19.91153336 30.96649551
37.82579803 19.70424271 31.0921402
38.08187103 20.12618256 14.21974373
37.83359909 19.78312302 31.05491066
37.56036758 19.64073944 30.96308899
37.65682602 19.6952858 31.00971603
38.05361557 19.92060852 31.05201912
37.68887711 20.0735321 30.96740532
42.85352325 20.51603317 14.47953987
37.79748917 20.02656174 30.98275566
37.70304871 19.96297836 30.94411087
37.69346237 19.93360519 19.36354256
37.58175659 20.13130569 30.96009064
37.56721115 12.14233017 16.54973793
45.66716003 20.79298019 14.0077858
39.122509 4.389095306 2.335350752
37.55215836 20.04016495 30.92611504
37.563591 20.08942795 30.94616508
41.05464935 20.3319397 24.69763756
37.52833939 20.05986786 30.92759514
37.65358734 20.12662506 30.97131538
39.65229797 18.89323807 30.79540825
37.60740662 20.11215973 30.96155548
37.5062027 19.81835556 30.83244133
39.61203384 19.49197388 30.71098328
37.5143013 19.94691086 30.88044548
46.0726738 20.48482132 11.90365791
37.54746246 19.93297958 30.88206673
38.82182312 4.65102005 2.565840006
39.21577072 17.92537689 9.798287392
37.54788589 19.98547363 30.90320396
38.69887543 20.21952438 31.00246429
40.67617798 20.80285263 24.34720802
37.64369583 20.05012131 30.95024109
38.56968689 17.99503326 31.37075043
37.59413147 20.02043152 30.92746353
39.28302765 11.66656113 16.59979439
37.76302719 20.17698288 30.98431969
36.76827621 11.56274796 7.185892582
37.98876953 20.27823639 30.98371124
38.3940506 19.88953018 31.07429504
45.2498436 20.3362236 14.37573242
39.99301147 18.41726303 29.28676033
45.43750763 19.51546478 11.38387299
38.24469757 19.9866333 31.04131889
38.64407349 20.08568954 31.02375793
39.62009048 19.28347778 30.90133476
39.59080124 19.50516129 22.67460251
39.97701263 11.97130966 17.06025124
43.90439606 15.32104492 9.046995163
38.85487366 20.02419281 31.02211189
38.98910904 20.19346237 30.9935627
39.75405502 11.35251236 17.33351898
38.48840714 20.27989197 30.98765373
38.90007401 20.15849686 31.00799561
40.51797867 11.74438858 6.89962101
39.4554863 19.55792618 30.87007713
37.72160339 20.28215408 30.94401932
33.42445755 20.40792847 13.60554695
37.63070297 20.2304039 30.93112946
39.56398773 19.47144318 23.94016266
37.96321487 20.32802963 30.95983124
37.66828918 20.36227036 30.86722755
39.35571671 19.30698395 23.2803688
37.76137543 20.39540863 30.87716293
41.80820084 20.59381485 12.14366436
39.21376419 20.27033997 30.92575264
38.49589539 20.44953156 30.87282753
41.14838409 20.27087021 24.37099648
38.81171036 20.45059586 30.85757065
37.88532257 20.52850342 30.74087524
33.9444313 16.28587723 9.916113853
37.63707733 20.47579575 30.7229538
38.39966965 20.56383896 30.74342728
38.19352722 20.55059814 30.74996567
43.6264267 20.54418182 14.77715397
38.34564972 19.76526642 31.12343407
38.91010284 19.84138107 31.0188179
43.33815765 20.7870636 14.11014652
46.29992676 20.36819077 14.53058815
37.26800919 19.54460144 30.5843792
39.71240234 19.99264526 30.50736237
38.74517059 19.86479187 31.04520988
38.69958496 19.73456573 31.08855057
38.79446411 19.95282745 31.02913857
46.26445007 20.68722916 13.24767399
39.38227081 19.70996857 30.8713932
39.32139206 19.66148376 30.91434479
39.33834076 19.9047966 30.92039108
39.03508759 19.69407654 31.017519
39.24274826 19.80231094 30.93257141
39.38240814 20.09952545 30.93583107
43.38777924 14.32011414 7.951309681
39.36481476 20.0151062 30.94083977
39.35054779 19.96643448 30.93348503
39.11121368 19.90579605 30.97460365
39.28009033 19.94861984 30.94646072
39.47735596 17.01591873 24.0221386
39.18038559 19.98007584 30.97436714
39.61624527 19.58418274 30.69795227
37.93019104 19.97185135 14.46539783
39.48712158 19.75625229 30.81599998
40.09057999 9.161376953 6.242518902
39.57450485 3.897533417 1.135613799
39.49628448 19.82569122 30.83270836
37.23817825 18.30854797 30.72875214
39.69608688 19.34202957 30.52235794
37.11445236 18.30585098 30.63468552
39.68761826 19.40171814 30.558424
39.50709534 19.46147537 20.30860329
39.68904877 19.21997452 30.53820229
39.68838882 19.56173706 30.60598564
39.69409943 19.65812683 30.61911011
39.66472244 19.36285019 30.61666298
39.65353775 19.52766037 30.64869308
39.7861824 20.48171997 26.25722122
45.09565353 20.77664566 14.22417068
39.50035858 19.89358902 30.85241127
45.94812393 20.19404221 14.3670826
38.5451088 3.64528656 1.73711884
39.49311066 19.96121979 30.87089348
39.28458023 15.56130219 21.10382462
37.22930908 19.54321289 16.94923019
38.58391571 20.85633087 24.79259682
39.56585693 19.93017578 30.81260681
39.6272583 19.66633987 30.70507622
39.63738251 19.7432251 30.72099876
39.7126236 19.46942902 30.48343277
39.70850754 19.61378479 30.5298996
39.43337631 17.96910858 25.64629745
39.52890396 20.54619217 30.53134727
39.56423187 20.58465958 30.42947006
39.42454147 20.47468185 30.68333435
39.62618256 20.33784103 30.58170891
36.87223816 4.2554245 1.145767927
41.30391693 8.992637634 4.516242504
39.44003677 20.16508102 30.84685898
39.80725479 18.92140961 30.55392838
39.61748123 19.98803711 30.71683311
39.2652626 20.44081879 30.78796959
39.3969841 20.3963356 30.74568176
39.62223816 20.08520508 30.67722893
39.6219101 19.05817795 31.06353951
37.05837631 3.726543427 1.160733342
39.65246964 19.12820053 30.91347313
39.65795135 19.05268097 30.8747673
39.59807205 19.23889923 30.97232628
37.27812195 19.32442856 20.66054344
39.63410187 19.18974686 30.94884109
39.67422104 19.20429993 30.65197563
37.63550568 18.95201492 12.88785362
37.84675598 16.76184082 29.15039825
39.66841888 19.18239212 30.73316193
46.3286972 20.53734589 14.29986191
39.57010651 19.4552536 30.83066368
39.54527664 19.41692352 30.89393234
45.69070435 19.73609161 11.89582062
39.59076691 19.4804039 30.76442719
40.68279648 8.06734848 3.345422983
39.62888718 19.42391586 30.71611404
39.64470673 19.34309387 30.73983192
39.35853958 19.57315445 30.92761803
39.19654465 19.36141586 31.11955261
38.82062149 18.17200851 31.41313553
39.44400787 19.40242004 30.97709274
39.21023178 18.74114227 31.39322472
43.97044754 20.83104706 13.91497231
39.68403244 19.49672318 26.96441078
39.50063705 19.19582367 31.06978798
39.39104462 18.73295593 31.3074379
37.69643784 3.986663818 2.442265511
39.39048386 19.14608002 31.15382004
40.87053299 20.44288635 24.06696129
38.88010788 18.41145325 31.5052948
39.1785202 18.34936905 31.30918694
41.41686249 11.69779587 7.503865242
39.06169891 18.28159714 31.35372162
40.18025589 14.55301666 22.55227661
39.44591522 18.22261429 30.99367714
45.9610672 20.19841385 12.13530064
39.40031433 18.25667953 31.04969406
39.37975311 18.14989853 31.02478218
39.48852158 18.45698166 31.02929306
44.32128143 17.16006851 9.433085442
43.57054901 14.77988434 8.237740517
39.23735809 18.20931625 31.1712513
39.26186752 18.31771469 31.21489906
39.92285538 20.36192703 16.12392426
39.5264473 18.78905869 31.19050407
38.81540298 12.61526108 10.50845909
39.50346375 18.70394897 31.16931915
39.48002243 18.60770416 31.13458443
39.28897095 18.42723465 31.25609398
39.39044952 18.51334763 31.19740868
36.43949509 5.970787048 2.562308788
39.86326599 9.719108582 5.682849407
39.31777191 18.53306198 31.293293
39.62085724 18.91295242 31.03233337
40.12852859 16.39930725 26.06400681
39.59418488 18.74000168 30.95842934
39.92063141 18.91978073 29.90101242
31.12784958 19.06119537 11.78913021
39.60571289 18.82314301 31.00172806
39.65542984 18.97057343 30.83589935
39.55109406 18.29301071 30.91152763
39.62210464 18.58943176 30.81683731
39.67658234 20.1374588 26.22183228
39.56466293 18.52876663 30.91420937
39.59607315 18.68587494 30.90501404
39.34243393 20.76472855 17.33965874
39.69295883 19.07164001 30.5769825
39.71411514 19.07204819 30.53196526
38.25952911 19.66157913 31.17493439
38.42553329 19.65834045 31.16601372
38.51610947 3.681072235 2.024299383
38.5039444 19.51438522 31.22608185
38.41914368 19.34724045 31.3104248
38.84838867 19.85811615 17.77927399
39.38261414 19.68832016 14.19436646
38.59974289 19.64663315 31.14686966
38.71592712 18.66005325 31.53010559
38.71454239 19.00395584 31.42074966
39.09632492 19.59796143 31.0377388
41.32028961 20.86135483 14.15968037
37.22114563 18.57170486 27.37087059
39.14570618 19.47571945 31.07920456
38.42678833 18.98242188 31.44993591
38.73930359 19.34666443 31.26560211
38.11364365 19.65241623 31.17339706
38.14284515 19.31575775 31.31342506
38.27181625 19.33231735 31.3168354
37.961689 18.34571838 31.49058151
38.18012619 18.41277313 31.52487946
39.46337128 20.79445648 16.17371559
38.05067825 18.8196373 31.45487022
45.59313583 19.85016632 11.76260662
38.58258057 18.64356995 31.54034233
37.7161026 5.573604584 1.854616761
38.45357132 18.62491226 31.53988457
38.4185524 20.96611786 13.71949863
38.32933426 18.60458374 31.53287697
37.477108 20.05330658 30.89637184
37.35881424 19.89018631 30.78070259
40.64772797 20.61605072 24.8363781
39.56140518 19.40913773 27.23373032
37.27465057 19.23277664 30.58046913
37.33115005 19.47945786 30.67578506
37.28895187 19.60442734 30.66227722
37.31045532 19.66602325 30.70260811
37.44115448 19.71811676 30.78688431
37.44300461 19.86535645 30.83114624
38.75418091 18.37654495 31.52727127
37.39108276 19.62181473 30.74225998
36.43312454 6.038391113 2.629266739
37.35721588 19.54664993 30.70651627
38.79183197 16.1699295 12.42611217
37.34334564 19.72462845 30.74246025
39.4338913 20.63007355 18.59094429
43.60970306 20.52113724 14.62652111
37.35084152 19.63991165 30.72216606
42.84341812 14.8444252 9.500955582
37.38670731 19.78931427 30.78470421
39.64393997 18.3561821 30.84193993
37.99607468 19.63280869 31.16533089
37.96310043 19.46596146 31.22777939
38.73743057 3.920482635 2.288285255
37.90884018 19.18878174 31.31671906
37.49417496 19.12996674 31.15522957
37.5491333 19.01810455 31.21925545
37.58385086 19.26459885 31.16353035
37.68156815 19.38364029 31.16824722
37.80089569 18.51013565 31.44010735
39.29502487 5.744586945 1.772893667
37.86903381 18.97889709 31.36950874
37.66990662 18.77597046 31.34133911
37.80567551 19.1113205 31.30882072
38.5534935 17.90954208 31.31249046
46.02315521 20.28004837 14.62867928
33.04786301 14.72858429 9.776259422
38.66771317 17.93373871 31.30148697
38.44311523 17.89330292 31.31656456
38.35042572 17.95754623 31.37056351
39.45193481 20.83542252 16.10807228
38.29346085 20.19697952 14.23356915
38.62873077 18.34725952 31.53585625
38.38726807 18.30265427 31.52730751
43.09586716 20.645504 14.7883873
41.09476089 20.41190338 24.27046585
45.60605621 19.77226639 11.55245209
38.50614929 18.32332611 31.53423882
38.70066452 18.12990189 31.42816925
38.58327484 18.0979805 31.4337101
39.51754761 20.19885635 12.79183674
38.25208664 18.03588486 31.42154312
38.1465683 18.13234711 31.46545029
37.71291733 12.80794525 16.28941727
38.15879059 18.26087189 31.50514793
38.46919632 18.07400513 31.43322372
38.3688736 18.16973114 31.48454857
39.64805222 20.54011154 17.60708427
39.8985939 20.3670845 12.92199612
38.79966354 18.065979 31.34996796
38.94155884 18.22295761 31.38824081
39.03631973 18.17532349 31.29915237
38.97728348 17.8966713 31.13480568
38.87349701 17.84840012 31.15471077
38.78282928 17.97037125 31.28570938
39.2924881 18.07902908 31.05585861
38.89768982 18.0184021 31.26571465
38.99348831 17.98170471 31.18318748
39.01370239 18.07462311 31.24045753
37.81835556 20.86455917 14.11345291
39.91570663 18.74046326 30.57431221
39.32793045 20.73828506 18.16585159
37.23025513 16.86606216 24.19674873
34.9572258 9.992656708 5.446194649
39.95976639 18.62743378 30.55911636
39.95312881 18.7473793 30.47706223
39.78536606 19.51079559 29.95978355
39.81615067 20.62411499 16.40855408
39.75567245 18.99682236 30.53642845
46.22470093 20.62842178 12.95614147
39.75047302 19.07605743 30.50798798
40.85488129 20.71229935 24.55425262
39.75347137 18.83219147 30.60795021
38.99476624 19.31867218 12.74110031
39.85756302 18.92455292 30.52045059
39.82403946 18.50841904 30.70290184
39.73885727 18.70034409 30.67347336
39.79672241 18.71991348 30.64498711
39.76623917 19.54953003 29.76067162
39.79790497 19.4649086 30.12345505
39.8131485 19.35293579 29.81870079
39.73011398 19.31616592 30.45423698
45.90229034 20.49745178 14.88813686
45.72744751 20.88615036 12.88166618
39.88190079 19.003582 30.4016552
39.82875824 19.11027527 30.42523384
38.85067368 5.447647095 2.239057302
39.75963593 19.54563904 30.32264137
40.04999542 18.19497299 29.6505394
38.80138397 19.83795929 16.14243889
40.19124985 14.12799072 21.79260635
39.05927658 4.161109924 2.154131651
40.09163284 16.05942917 24.76418495
40.15224457 14.96753693 23.06941414
38.86345291 4.929725647 2.548564911
39.94311523 18.38047028 28.60702705
39.90475464 18.56004333 28.65294075
37.23916245 18.0940094 26.24036217
39.93586349 17.98791504 27.57995415
39.38510132 20.72760391 17.57051277
36.81370926 9.784339905 4.60686779
39.99731064 17.29362869 26.56258202
37.4003334 9.09186554 4.200423241
40.0873642 17.38050842 27.9519577
40.11179733 16.85787964 26.94390297
45.72634125 20.82013321 12.69235706
40.04398346 17.90769577 28.57832909
40.02613831 17.81108856 28.13457489
45.94384766 20.86766434 13.12817192
39.52775192 18.91444016 27.56960106
39.56813049 19.0266571 27.87390518
39.50347519 18.47885513 26.77754402
39.65245819 18.66864014 27.31758308
39.65268707 19.70730209 29.07192612
39.62712097 16.71217728 23.67126465
32.70113754 15.31364441 10.16600609
39.59936523 18.83918381 27.55725098
43.56415558 20.40407181 13.59135342
39.43634033 14.34308243 18.96562767
39.49856567 14.89741898 20.08507347
37.75162125 19.79345322 16.533638
39.48847961 16.05314255 22.23354912
39.56795502 18.10726929 26.1895752
39.57707977 17.10857391 24.33245468
39.52944565 17.5793457 25.15302849
39.57546997 19.50664902 21.08963585
39.50091171 19.1158371 27.49069786
40.5160675 20.07565308 24.05023956
32.22960663 16.60715485 9.889165878
39.38697052 17.74110413 25.12007904
41.08624268 20.00559998 24.67809486
42.35558701 20.43386841 13.28788662
39.36405563 14.94089127 20.01457405
37.25816727 19.41592026 19.33711052
39.3614769 17.04011536 23.88717651
39.06595993 18.45853806 24.49398422
39.07123566 16.33852768 22.12059021
39.60841751 20.07372665 14.65008736
39.10339355 17.44778442 23.88188362
39.07958603 18.82061005 23.90774536
39.12405014 19.12991714 22.84114647
39.09686661 19.35929489 20.26229286
39.18422318 18.88950729 24.51870728
39.27787399 18.94856262 25.08222771
39.39184189 19.53193665 16.85429573
39.39827347 19.39079666 22.26257324
39.42378998 19.43700027 20.87029839
39.23527145 19.61802292 17.17986107
39.25256729 19.4980545 20.22076988
39.51112366 19.23853302 27.26715851
39.42260742 19.07441711 26.15655899
39.3129158 19.15869141 24.31456566
39.67631912 19.56222534 26.17703247
39.61131668 19.50754547 25.4857502
39.6410408 19.597229 25.89119339
38.94887924 5.306850433 1.981427789
39.57036209 19.4075737 24.91945457
39.60468674 19.4442215 25.85269356
39.55199814 19.42297363 23.3234539
41.00707245 19.94847107 24.29306793
37.56185913 20.34560776 30.80305862
39.52344131 19.31031036 26.72720909
39.53616333 19.35119629 26.04393387
39.43138504 19.48239899 18.24529648
39.45550919 19.45142746 19.22296715
39.4527092 19.4354744 20.33821487
39.47475052 19.38839722 22.1642437
39.55164719 19.3894577 24.35298157
39.68009186 19.70400238 26.25482559
39.57410431 19.55082321 24.64270592
39.59093094 19.76290894 25.78281975
39.75216675 4.687644958 1.414550185
39.58145142 19.64204025 25.24052429
39.56457901 19.66656113 24.99129105
39.3986702 19.58237839 15.22010803
39.5188446 19.46530914 21.12833786
40.73025894 20.79021835 24.2112236
39.49518967 19.458004 19.77334023
39.53084946 19.46054459 22.11515427
39.70878983 19.65562057 24.55160904
39.79893112 19.63606644 24.39447403
37.80112457 20.5915451 15.486763
39.57494354 19.64112473 24.43426514
39.34127045 20.78656769 19.93819809
39.61845779 19.61097336 24.12095833
39.60046387 19.75950241 25.26128197
39.61045456 19.54755402 23.45503616
39.08123779 3.972915649 1.577942491
39.54595947 19.49261856 22.29261208
41.77961731 20.66836929 14.67507076
39.5511055 19.5701561 23.6650486
39.74293137 19.86034775 25.02500343
31.50767517 19.63828659 12.87436962
32.58348846 16.60153198 10.92352486
39.65923309 19.85945129 25.26297188
39.57648087 20.17963028 25.87435341
43.48906326 20.51373291 14.512187
39.60245514 20.0195961 25.60493279
31.32601166 20.32353973 13.5407362
42.22901154 13.1844368 8.540289879
39.69192505 20.4134407 26.18387794
39.71310425 20.51666641 26.16092491
46.03865814 20.77790833 13.77528763
39.59384155 20.36932373 25.9913826
39.65961075 19.7977829 26.21491814
39.73586655 19.72431946 26.40640259
39.51335144 20.87179947 23.17687607
40.7707901 20.85464859 14.29182911
39.90473938 18.78392029 10.42089367
39.51818085 10.96417236 6.417989731
39.5981636 19.87745285 25.98700905
39.66562271 19.87911224 26.22742653
37.70214081 20.34843826 18.51761436
39.59110641 19.97898865 25.9742794
39.6595993 20.62052536 24.96503258
46.02097702 20.69881821 14.43146229
39.56188583 20.62839508 25.07084274
39.75830841 20.50775528 24.97725296
39.69485092 20.47076416 25.05574036
39.61449432 20.53765488 25.92822456
40.433815 20.48419952 24.88148499
39.67461014 20.58931351 26.01094818
39.57647324 20.47436905 25.84542656
39.54837799 20.59795761 25.53760529
40.43297195 21.02444077 13.39689922
39.56254196 20.54915619 25.69491386
39.54168701 20.55484009 25.46702766
38.96194077 18.90968704 19.72255135
39.70455551 20.18344498 25.16875076
39.57533264 20.33174133 25.64079857
39.61738205 20.43884659 25.26822662
36.95183563 20.72481918 12.19246483
39.83377457 20.66812134 24.85608673
39.87149048 20.45451736 24.94675827
39.95288849 20.63837814 24.87134552
38.43989182 3.709461212 2.939832449
39.67405701 19.69883347 22.74369621
39.94260788 19.99773407 24.87389183
39.56786728 19.39706039 28.37801361
40.18896866 20.25395203 24.89638519
40.16537857 20.06709671 24.87204361
39.92155075 20.15505981 24.91882896
39.05744934 19.18699265 12.09616756
40.5490036 20.5657196 24.86250114
40.39347076 20.57580566 24.87057877
39.123703 19.52270508 15.21396542
40.44749069 20.38746262 24.88469505
40.32030106 20.38234711 24.89415932
40.00939178 20.41519165 24.92407799
40.12815475 20.51144028 24.90093231
40.81867599 20.75832367 24.22684097
40.58832932 20.81233215 24.40418053
40.80041504 20.76756287 24.37187576
40.83204269 20.74048615 24.46759415
37.70635986 13.52206421 23.15477371
36.83811188 3.822780609 1.468336344
40.07002258 20.75660324 24.74552536
40.19048691 20.83843994 24.49518967
35.75905228 7.326057434 4.390182018
40.14175034 20.80978012 24.61905861
39.09873199 11.54669952 16.17765045
40.8453331 20.63235092 24.75915337
38.9076767 6.111904144 2.196713924
40.71826935 20.67604446 24.75848961
40.41160583 20.72417831 24.75338745
40.53652954 20.79246521 24.52788353
44.68886566 20.46856308 14.5763073
40.46511078 20.76647949 24.6498661
40.92892075 20.65965271 24.20348358
41.01090622 20.61185455 24.3955822
41.07831955 20.49906158 24.38682365
41.01363373 20.43373489 24.70687103
40.96330261 20.5214119 24.72003365
38.87331009 13.91611862 14.74702644
39.57477951 20.05872726 14.03292179
41.09345245 20.10713577 24.68728447
41.03313828 20.02544403 24.72985268
41.07190704 20.49769974 24.56984901
40.98469162 20.4398613 24.10231209
30.79049683 19.92236328 12.15778065
41.01660538 19.88134384 24.52747917
37.56557083 19.0068779 14.61126614
43.37486267 20.35904312 13.3043232
41.14058685 20.05243301 24.54429245
40.96295166 20.03110504 24.16634178
41.05820847 20.24052048 24.14299774
40.96213913 19.87293243 24.3651104
46.18058014 20.34159851 14.70000076
41.11285782 20.22002029 24.23139954
40.72830963 20.20839691 24.05460548
40.56629562 20.19128418 24.03879166
40.91780472 20.30366898 24.06622696
39.95879745 20.73376465 23.90847588
37.96299744 10.90778351 17.34633064
39.966259 20.62728119 23.82354736
44.94293213 20.46643448 14.72553062
40.26595688 20.69718552 24.06789398
40.12937927 20.69149399 24.01934242
40.13844299 20.59074783 23.97194672
40.36405182 20.44499969 24.01500511
40.75006866 20.68253708 24.10825348
37.08608246 18.40799713 30.59419823
40.81477737 20.5679512 24.08169937
40.39955902 20.79257584 24.14246941
40.61093521 20.68915176 24.09989548
39.87859344 19.7256546 23.8194561
39.87548447 20.11112595 23.50365639
40.02318573 19.84879684 23.90806961
40.15120697 19.88271332 23.98118019
40.23112869 20.28894043 23.91524696
39.98038864 20.37695313 23.70002937
40.7059021 19.90934372 24.14445877
40.6255455 19.98464203 24.09591675
40.2991333 19.92152023 24.03490067
40.39641571 19.84347534 24.11926079
38.97484589 11.04253006 8.000620842
40.38817978 20.17487335 23.99331474
40.05657959 19.69870377 24.10352707
37.79024506 20.43477249 15.77577591
39.89136124 19.60605621 24.00695801
39.91436386 11.83275604 17.08558273
38.36058426 3.524475098 1.280603528
40.50612259 19.75577164 24.27424431
40.30744171 19.75632477 24.17564583
39.99454498 19.63439941 24.53484917
38.33057785 3.6379776 2.159584522
39.99587631 19.61524582 24.31422806
39.99649048 19.61806107 24.42073631
40.0939827 19.64695358 24.27869415
39.67749405 19.90706253 22.91162682
39.54043579 20.12395859 21.19684601
40.17083359 20.47614288 15.71341324
40.70750046 20.16698074 24.83752441
39.54075241 20.43701553 19.02688789
39.61574173 20.42440414 18.34105682
39.70619965 20.53804016 22.94168854
39.72399902 20.65074921 23.15878296
39.66900635 20.40711212 22.62701607
39.48427582 20.54677963 20.5670166
39.68449783 19.53614044 23.39344025
39.55921555 20.48034668 21.82766914
40.0995903 19.82966614 24.81866264
39.47473526 20.45077133 20.10225868
41.32770157 20.47821045 14.54144287
