# .PCD v0.7 - Point Cloud Data file format
VERSION 0.7
FIELDS x y z
SIZE 4 4 4
TYPE F F F
COUNT 1 1 1
WIDTH 1329
HEIGHT 1
VIEWPOINT 0 0 0 1 0 0 0
POINTS 1329
DATA ascii
6.794914722 3.972067595 1.131674767
0.8015650511 4.093982697 1.256452084
2.19954443 2.837350607 1.877567649
6.752499104 6.298179626 2.523916483
4.798082352 4.960877419 2.029297829
4.359250069 4.213809967 0.02532711625
6.49605608 0.9320628643 0.197596997
4.783559322 4.982226372 1.961224794
4.886700153 8.093057632 1.122060895
6.404316902 7.374775887 0.02999667078
3.027536869 1.729055643 1.803221226
7.802378178 2.072373867 1.877362609
4.61462307 5.291945457 2.099755526
3.330366611 10.34611702 1.327622771
0.1301230192 6.558008194 0.7853980064
6.07098484 4.988160133 1.879491925
4.47499752 5.13588047 1.442391634
4.624821663 5.268981934 2.177899837
10.14307785 8.433870316 0.4381345809
2.419457912 3.031748533 1.726135612
8.030524254 0.8584415913 0.1363079548
4.648962975 5.187273026 1.89043045
1.040428519 3.697844267 0.4675600827
9.066539764 3.7969625 1.813065052
7.045314312 10.07860184 1.670693755
4.013642311 1.667442322 1.875759721
2.008819103 3.81890893 1.418016076
4.648470879 5.203454018 1.983216166
5.885049343 6.565662384 1.334675074
7.252559185 0.3397293091 0.8526006937
1.203612924 4.031250954 1.807823777
2.641047478 7.305773735 0.05090719461
5.68146801 2.729912043 1.112000704
5.884636402 4.337556839 1.237620831
6.012696743 4.821397781 1.72344923
10.56892776 3.539610624 0.2247827947
10.84707546 4.66162014 0.1455869675
4.24461937 4.960404396 1.212600231
3.249901295 2.256292343 1.791579247
4.7374506 1.452630758 1.870313168
4.632086277 5.224925995 1.890023947
1.604674697 6.129908562 1.575957417
5.231635571 6.425336838 1.507190824
2.008261204 6.732564926 1.231711745
5.905380726 8.676719666 1.142720461
9.335985184 5.755395889 1.386322379
4.721657276 9.393405914 1.416856766
4.690408707 5.137514114 2.165489435
3.47305584 8.086021423 1.138978601
3.242248058 5.737353325 1.134162545
10.09653378 3.136187315 1.273259282
3.29802084 2.294575214 1.495026827
8.453774452 5.9344244 1.113198042
3.705961704 1.01903224 0.1459266543
9.471952438 5.242314339 1.853275299
1.589327216 4.927979469 1.722806811
4.112196445 10.02078152 1.744452238
3.628383636 2.280440569 1.27001965
8.586371422 4.609120369 1.131412983
3.071210861 2.103126526 1.876006603
3.903129101 6.077422142 1.148626447
7.287558079 2.062362432 1.576646924
4.67630434 0.2385598421 1.188264251
0.1039537191 5.97738266 1.012459397
6.633426189 1.561905622 1.870577574
2.982227802 4.849123955 1.121827126
4.668258667 5.174082756 2.082294941
4.706029415 5.10667038 2.089637041
6.991070271 1.463621378 0.07791944593
5.99490118 5.762318611 2.552365303
3.259859085 2.436103106 1.337424159
4.730494499 5.046905518 1.906104922
5.30108881 1.575084686 1.765308142
3.301577568 5.966337204 1.128224373
1.818157077 4.112134933 1.640866041
4.727055073 5.068691254 2.029886007
4.675464153 5.113209724 1.842823267
5.965751648 0.33697927 1.336300731
2.358942509 3.164725542 1.45398891
10.79961967 4.6773386 0.9585684538
3.559195042 0.4889760017 1.104234338
6.925647259 7.916584969 1.116241455
4.406526566 5.082932472 1.356065154
2.248362541 5.359175682 1.126212955
5.873715401 10.06235695 0.09308150411
4.575993538 5.227226257 1.633643985
4.296120167 5.144898415 1.25718236
1.8394171 9.521004677 0.4951007366
6.980987072 9.087337494 1.35785377
1.61559236 2.758995771 1.20674479
0.335365057 6.078566551 1.351132393
5.974762917 6.014454842 2.560727596
1.375679374 8.627506256 1.40924716
10.65055943 4.147273064 1.006961346
1.532238364 3.680664778 1.860227942
4.592158794 5.373522758 2.030405998
1.475242019 8.54784584 1.514147043
3.833592415 0.4173676968 0.3249357045
3.130552769 0.6146757603 0.3599194586
4.774931908 9.651153564 1.874567986
4.600065708 5.335178375 1.955796599
1.575864673 5.61913681 0.01621427014
4.584183693 5.782917976 2.328416824
7.007095814 6.063842773 1.502601385
4.780480862 1.6677742 1.57046032
4.566063404 5.377638817 1.634186387
7.735070705 10.57611465 0.5559795499
1.849707007 9.758227348 0.7313022614
6.091627121 5.49633503 2.530210018
7.314431667 3.49177146 1.123582125
9.114891052 6.980212212 1.810376644
10.33346176 3.082567453 0.253480792
4.589206696 5.359165192 1.806799293
7.516067982 10.67274094 0.4980376959
1.780248523 7.820401192 1.869882941
2.910961151 0.646897316 0.629350543
6.12061882 3.230732679 1.104544759
4.576171875 5.420276642 1.737163663
4.604744434 5.297798157 1.838209987
1.905918479 3.921262503 1.569068909
3.674348831 10.24895859 1.510626912
3.295979023 5.050499916 1.124969363
4.29890871 5.432645798 1.282908678
6.977191448 7.263550758 1.161706448
4.412846088 5.42489624 1.332758784
5.429895878 0.8617675304 1.733060956
2.254992008 1.836871862 1.533907175
10.0947876 8.216031075 0.01005231589
4.444522858 5.518334389 1.366422534
8.323381424 8.293593407 1.748909712
5.46482563 4.677032471 2.42787838
6.217704296 5.828925133 2.528949261
5.072473526 1.762211561 1.280966997
6.601120472 0.2638819218 0.4824875295
4.769826889 6.142669678 2.356887341
4.380797386 5.293316841 1.302609444
6.224995613 5.166843414 2.299711704
4.920906544 4.828137398 2.068469048
4.37515974 5.331523895 1.298502803
0.372585535 4.984183311 1.330009699
3.912397861 9.177199364 1.575125575
1.748103023 4.31403923 1.714816928
8.999077797 3.648930311 1.807992697
6.063500881 4.49322319 1.268587947
8.100978851 3.324507952 1.171589375
2.988730431 1.262943745 0.1107467189
4.304891109 5.293480873 1.267143011
0.1164728403 5.489486694 1.110009909
10.40205288 7.719801903 1.00758481
0.2996257544 5.279153824 1.315639138
10.3279686 3.079221487 0.9225980043
4.766355515 5.097933769 2.463527203
6.554542542 4.607188225 1.169666409
9.734326363 4.076196671 1.796299577
1.886999488 3.95110774 1.624238968
4.530257225 5.459275246 1.500596881
4.138844013 0.7162997723 1.513985991
4.477684975 5.412084579 1.39803791
5.645779133 4.50282383 1.452306151
7.885247707 8.628998756 1.460393667
4.677987576 5.997052193 2.356647015
5.03653717 1.576808691 0.1098577455
4.623468399 5.485296249 2.468835354
8.575705528 8.670354843 1.857722759
6.287806034 0.1524002552 1.062060714
10.47531414 3.343534231 0.7594606876
3.466190815 1.932533026 1.871177435
2.178738117 3.343649626 1.780150056
4.557504177 5.281085014 1.583688259
2.53263998 8.062963486 1.411031723
8.734852791 7.553172112 0.03753029928
2.995685577 2.584153891 1.4116081
3.299735069 8.94261837 1.832536817
5.220106602 3.946059942 1.169838309
5.81637764 1.490373611 1.847033143
4.53643322 5.335047722 1.529045701
6.81764555 5.925188065 1.449712157
4.484834194 5.286207199 1.429686546
6.554555416 2.382998228 1.177739501
4.847360611 6.31493187 1.604731679
5.33252573 4.670426369 2.361203909
3.060421467 10.37522507 0.4613966644
2.403753757 4.692811966 1.163144112
3.304810524 2.639426947 1.21355319
1.728261828 4.697116852 1.411992192
2.557058334 4.776869774 1.14087081
4.997149944 8.151025772 1.129611135
1.590478778 6.008710861 1.576887369
5.147459984 0.07475173473 0.9814639091
2.512766361 2.568074942 1.876632333
6.858505726 0.4371721745 1.285024166
10.07010937 4.045472145 1.600670338
2.187158585 4.743096352 1.176114321
4.981624603 10.51753998 1.541886687
6.968204975 6.305778503 1.672493696
1.772111773 4.255723 1.583242893
3.109862328 4.818799973 1.123432875
6.345195293 9.762200356 1.872454524
2.523671627 9.135694504 1.751097798
9.815610886 2.272743702 0.4969227016
2.621012688 4.933364868 1.125322223
3.519850254 1.523138285 1.827793598
2.565277576 8.262824059 1.792401552
1.792974114 4.161854744 1.755288124
8.988415718 3.3545959 1.866807103
2.822539806 4.883084297 1.121485949
5.381012917 5.915086746 2.535293102
2.525733471 1.293562889 1.224727154
5.387814522 6.445632935 2.435952902
4.545305729 2.17925787 1.178506851
8.07948494 10.33113289 0.9994063377
1.768199325 3.719147444 1.878453493
4.429076672 5.697612762 1.381520391
6.587736607 5.247013092 1.288105488
1.142301917 4.50886631 1.824781179
5.228704929 6.433274269 2.396090984
4.111654282 4.968603134 1.164741158
0.1500184536 6.248504639 0.259775728
9.709956169 2.30120492 0.4208488464
7.391097546 1.012675047 1.577102423
10.18011379 8.370141029 0.4389528334
7.247503757 1.951298952 1.82503593
7.924408436 2.310072899 1.837494254
5.243115425 11.07853317 0.7109178305
0.663543582 8.092478752 0.2519469857
5.837307453 6.088434219 2.553011179
4.053034306 4.864646912 1.152754307
2.918775082 8.8963871 1.877235889
6.887578487 2.086053371 1.250445604
4.1835742 5.132829666 1.204775333
5.897542477 6.367638588 2.336961508
9.876743317 4.891057014 1.818681121
4.154077053 5.056373596 1.180899262
6.487389088 10.12626171 1.734628916
9.322207451 2.888945341 0.2258011699
5.749589443 4.697790146 2.315059662
8.019807816 1.17710042 1.469555616
3.70207262 4.870689392 1.121807814
6.446392536 5.763586998 2.31751895
3.786342144 4.954795837 1.128796101
8.302931786 4.083830833 1.149143457
7.544224262 8.913672447 1.734510422
3.17310667 2.257202625 1.831980944
5.867111683 6.391844749 1.838543892
0.2259858847 5.486846924 0.1665049791
4.450180054 1.808327436 1.413255811
4.107875824 5.421377182 1.239620805
4.038969517 5.322817802 1.212703228
3.73406744 1.901732683 1.840173125
3.998392582 5.158818245 1.185640454
10.86452103 6.045403481 1.018846154
3.743150711 5.206680298 1.168705463
3.720168591 1.762331247 1.877560258
4.814936638 1.836658239 0.1003131792
3.40797472 5.16112709 1.142802596
4.014940262 5.251774788 1.203551173
6.263267994 9.390590668 1.413676381
3.605749607 4.994176865 1.126754522
5.72233963 3.605851889 1.116801977
1.595022082 4.835310936 1.76635468
3.44829607 5.023123741 1.125463128
9.696900368 2.186061859 0.4946712554
1.063803792 3.679663897 1.241749406
10.9049139 6.434749603 0.332913965
7.153140545 10.72729015 1.006362557
6.072798252 4.893777847 1.518409133
5.263056755 9.512841225 1.657651305
3.83151722 5.506436348 1.201273561
4.559738636 10.96629524 0.9539221525
8.76455307 3.192538023 1.852273941
6.569422245 9.714900017 1.871469855
1.845546603 6.196819305 1.266026497
5.841740608 4.607635498 1.389239907
0.8801263571 3.966849089 1.079398513
5.551172256 3.897794485 1.159301043
3.516314983 5.383896828 1.162191868
2.604475498 5.359473228 1.112806559
4.548388958 0.09509050846 0.74053967
3.006781578 2.979168177 1.224133015
5.406648636 4.97248745 2.523903608
3.195840359 5.253190994 1.134335876
2.068088531 9.902699471 0.9805719852
5.790484905 0.08464050293 0.4858598113
1.959549785 5.36491394 1.1736902
8.364106178 0.9724240303 0.1582822204
2.348692894 3.122864485 1.711509466
4.723408222 5.269548416 2.488807678
9.427578926 4.247806549 1.883250475
7.456833363 3.642785788 1.11940372
0.7415469885 4.202232361 1.330828428
1.89830482 5.466684341 1.186051011
9.616805077 6.208000183 1.874625206
10.86881542 4.717983246 0.6981829405
7.382241726 2.034714937 1.807595134
2.011536598 5.144305229 1.177105546
4.720935822 6.072361946 1.929378152
5.848679543 10.33515358 1.668505311
3.256945133 1.890833139 1.871723056
2.473586082 2.978157282 1.660986066
10.43308353 7.848327637 0.4893909395
5.638026237 6.295990944 2.4990201
9.233760834 6.295243263 1.407373071
10.88256454 6.299254417 0.8993598223
6.475999355 5.390033722 1.397141218
8.213467598 2.85747695 1.415015936
8.031648636 8.58551693 1.719869494
4.72049284 6.459704399 1.361365438
2.266716957 3.919214487 0.009771794081
3.530581474 10.39292336 0.2702853382
1.998162627 5.255143166 1.171076775
6.124617577 1.322192669 1.881967068
10.81208324 4.38418293 0.4312949777
1.775674939 4.095525742 1.81175065
2.5756464 2.213147402 1.852335572
5.432200909 1.614183187 1.653003335
1.821174741 3.989109755 1.809424996
8.811768532 7.522825241 1.507391572
0.002732038498 5.829031944 0.5072106123
1.894557357 5.1600914 1.212739944
2.1980896 5.471618652 1.128892422
2.667162895 1.075882912 1.131315827
5.364788532 9.214754105 1.225140691
4.617090225 5.885956764 2.269404173
2.105623722 5.360319138 1.143606305
5.177495003 1.605554342 1.707849145
4.022090435 10.43423271 0.209153533
2.165671349 4.808681488 1.174620032
1.232978702 5.270519257 1.872032404
10.6388731 3.880028486 0.7069967985
2.595648766 2.579971075 1.870105624
2.053977013 4.743144035 1.20616591
4.669815063 2.022635698 1.215489984
5.626338959 6.425971985 2.41341877
8.242487907 3.12577796 1.267234802
10.29275513 8.149596214 0.3038835824
0.901578784 6.164816856 1.738290429
6.008738041 6.176756859 2.513535738
6.506856918 1.951068163 1.270857215
0.9958981276 4.283414841 1.738367915
1.178170085 6.046815872 1.855387211
6.542315006 0.6531124115 0.2659403086
0.2440986633 6.509264946 1.164473891
3.71612072 9.124443054 1.77131021
6.489916325 5.620090485 1.399637341
2.760756493 2.89532733 0.04139330983
2.693781376 5.037608147 1.119701982
3.217751026 2.303153038 1.730403066
6.307835102 1.020824671 1.780923247
3.35371542 1.830790758 1.871443748
2.36829567 4.90728569 1.142885804
3.105614662 0.5213506222 0.5314468145
5.501657963 0.07273745537 1.055148125
1.990233302 4.935687065 1.210641861
4.751091003 6.135519981 2.261643648
6.245233059 10.17251682 1.734679461
7.923901081 10.4683342 0.3830802143
4.642200947 5.942193985 2.28950572
0.9445585012 6.360549927 0.1032354459
0.8810395002 5.996543884 1.739282131
1.26862061 7.807959557 1.66286993
2.527524471 2.930027723 1.587452054
2.085837364 2.099247217 1.565853834
4.572659492 10.3436718 1.619299293
4.529024124 5.640171051 1.549703598
9.152625084 6.779870987 1.766489506
2.435176849 1.364045858 0.9390064478
2.14974308 4.916175842 1.172410607
4.901412964 8.42797184 1.139950991
2.428621769 5.242508888 1.12027967
1.042950273 5.089790344 1.824317336
0.4418455362 4.84758091 1.372843266
0.2492674589 6.3714571 0.2164787054
4.593477249 5.824598312 2.253704548
6.166654587 5.002988815 1.519817114
2.334516525 5.139451027 1.132615924
3.803211212 10.38226032 1.446907878
3.157213211 1.421426535 0.1266229451
1.901692748 4.742879868 1.267141938
6.412303925 1.559366226 1.850700855
1.892139792 4.628811836 1.283407331
5.684434891 9.693389893 1.874839425
6.211649418 5.142500877 2.26310873
1.818070292 4.196718216 1.369307041
1.065778136 5.796275139 1.832634091
4.659689426 2.523050547 1.125661373
4.60317564 5.376097679 2.373352051
2.390528202 1.637955427 1.509960413
6.079645634 5.790574074 2.546131849
1.841900945 4.960817337 1.266811848
3.602724552 6.197595596 1.118918896
1.877789855 4.849813461 1.265325308
6.610420704 5.661042213 1.312867641
8.53883934 2.721338987 1.878206968
5.251932144 0.01004397869 0.7240767479
6.511430264 1.381658554 1.876372576
1.788406968 4.770765305 1.333979845
4.413986206 6.131793022 1.261342049
3.273921013 3.812156916 0.04785803705
8.942082405 2.77167058 0.2090708017
1.894340396 4.132232666 1.298399091
5.977219105 0.2228325605 1.21796906
5.936011314 4.838451385 2.149623394
2.70374918 7.859116554 1.222748876
1.70483315 4.808841705 1.410470486
1.906710744 3.641105413 1.858286977
9.611223221 7.482927322 1.776601911
4.954295158 9.453814507 1.417868614
10.27153778 8.124992371 0.8160176277
8.439378738 1.10958457 1.178714514
1.745170236 4.350709915 1.583367229
1.992769599 3.994244337 1.29108274
2.405478001 1.570982695 1.456890583
1.735940814 5.408396721 1.27203989
1.760095954 5.299458504 1.26933682
5.672436237 6.265850067 2.506235361
7.984323025 2.061541796 1.875735283
8.602136612 1.540071249 1.411133885
3.623299122 1.658210993 1.871529341
4.855631828 4.892889023 2.335265636
4.751897812 9.931070328 1.852668643
1.649306893 5.160017967 1.413374901
7.352096081 0.8353676796 1.467728496
6.160991669 0.2908419371 0.2343046665
4.687325001 7.8151474 1.104259849
1.634168506 5.278757095 1.414364219
2.204324722 2.939727545 1.87414062
10.07200241 2.859305143 1.158439755
7.154757023 5.738248825 0.04424756765
5.016040802 4.701421738 1.569838762
1.785947919 5.187075615 1.267880082
1.28284061 4.697266579 0.05144078285
3.17652607 2.343795776 1.656615376
3.805476665 1.227932453 1.767102003
1.808896899 5.07416153 1.267833948
1.592637897 4.976509094 1.653769493
9.468471527 1.973528624 1.167572498
5.015852928 0.08953344822 0.9880312681
10.21806812 6.113289833 1.651553154
10.24708462 2.895385504 0.9224783182
1.785248399 4.289163589 1.442841649
2.416153431 2.36403513 1.855816722
6.405288696 2.02691102 1.214817286
6.492589951 5.995317459 2.51721096
5.856445789 9.485074997 1.496024489
3.111035824 1.026473284 0.1831395626
10.74317837 5.457093239 1.207170725
6.545918465 6.048084259 2.525067806
9.268362999 6.409463882 1.747079611
1.927507997 4.566328049 1.272921085
7.409230709 2.11489892 1.649169087
4.535609245 5.765170097 1.583034992
8.651488304 7.073050499 1.172451735
7.854753971 7.263393402 1.118662357
4.798256397 7.216956139 1.110862374
9.89381218 5.497517586 1.833900928
1.649310231 4.856948853 1.491432548
6.967772007 7.533328056 1.133700609
1.614985824 4.913395882 1.573630214
7.017527103 1.930062532 1.57762146
1.884950995 3.936492682 1.719344139
5.91009903 6.379118919 2.008812428
1.635807395 4.793326378 1.572851419
8.051898003 5.588457108 1.122969031
2.872468948 2.926948309 1.280072451
6.202385426 9.369030952 1.339507937
0.3990770578 7.607665062 0.7920656204
2.674027443 8.33794117 1.656365514
1.586564422 5.154601097 1.575883627
4.882945538 3.072267294 1.113858461
4.293001652 1.226586103 1.829821706
5.984451771 6.295534134 2.447752476
7.425744534 2.944837332 1.146047711
1.598739266 5.034032822 1.57478106
2.013483524 3.722875357 1.57649982
0.3359540701 7.10100174 0.4091362953
6.705191135 1.811965704 1.574041843
5.392287731 4.662195206 2.38461256
1.111269832 4.729944229 1.82816112
1.830741286 4.242019653 1.325108528
2.525082111 6.224224091 1.141055822
1.931858897 5.786420822 1.185538173
4.184442997 5.905071259 1.240924239
6.352697372 4.597595215 0.0252963677
6.243031025 0.386234045 1.343752861
7.184219837 10.69769669 0.09574627131
1.61613071 5.095491409 1.493376374
1.739519954 4.995790482 1.334995508
4.690253258 1.590714693 1.81001842
8.561969757 1.16438961 1.144328713
1.666113019 5.041712761 1.412229896
8.693736076 6.497970581 1.137678504
8.221808434 2.738334417 1.71099329
9.109140396 3.597587347 1.867190242
8.258109093 2.691301107 1.813367128
5.81139183 4.721130371 1.716782451
5.692843914 6.454735756 1.966892123
7.341577053 1.893826723 1.867036104
5.771010876 6.329136848 2.454050541
6.396259785 6.547492981 1.912016392
1.618193269 4.79076767 1.716042638
5.010237217 6.216498375 2.487764835
4.381115437 6.490087509 1.237636328
6.606961727 1.715830088 1.781925797
1.678252816 4.549313545 1.712168694
2.757225513 3.683927774 0.02978460863
1.647933841 4.666463852 1.713339448
0.2053000927 7.025783539 0.6510465145
9.711083412 3.144450903 1.576797009
4.820223331 5.259159088 2.530350447
10.57155228 7.47383213 0.3042384982
2.36550808 8.480174065 1.878836513
2.492434502 1.772382498 1.65102458
2.392387867 4.974948883 0.03448482975
1.658881783 4.582596779 1.756609797
2.109960556 3.38259387 1.827301621
3.085196495 10.55610371 0.8534331322
1.599876285 7.299905777 1.880529046
0.3959037066 5.280777931 1.414371014
5.063534737 0.2404105663 0.2381715775
1.63832438 4.731173515 1.649765849
2.651564598 1.358722925 1.465241075
8.580242157 3.190315962 1.577875495
6.300663948 2.482058287 1.135725617
3.5427742 2.119618893 1.578018785
6.359930515 5.78242588 2.445657253
4.286017418 1.567462683 1.872176886
6.704942226 6.151911736 2.518263817
7.029886723 10.84992409 0.241194427
10.50105953 4.939570427 1.422456741
3.951438904 9.410978317 1.869070888
7.840240955 0.7821581364 1.213804841
1.808556199 4.134242058 1.70923233
4.853747368 0.06273436546 0.500800252
0.7141422033 4.243900299 0.4729483724
8.677632332 6.800689697 1.152137399
6.852980137 2.007087946 1.285767794
6.764603138 0.5438315868 0.2872949839
10.74689007 6.879528999 0.7298660278
6.530181885 1.461203814 1.878073096
1.721737027 4.36337471 1.754117608
4.588458061 5.783443451 1.821145296
3.847514629 8.632492065 1.18313849
1.479317069 5.25414753 0.03579561785
4.303850174 10.83535671 1.141756058
7.351638317 2.05002284 1.771941304
1.751818538 4.588788986 1.416805983
2.552937508 8.391946793 1.857825279
7.236612797 1.262589693 1.759490132
1.687344909 9.600769997 0.8608726263
1.982392669 3.159379244 1.878791213
2.70498085 8.38444519 1.730755687
2.136628628 8.411183357 0.1193003282
0.2650567293 6.56217289 0.2471366227
8.490824699 3.081256628 1.576954961
5.599629879 6.32507515 2.490721464
1.385768056 4.851039886 1.868522644
1.696236491 4.627676964 1.494291186
4.846108437 3.678546667 1.161239505
1.717027783 4.453726768 1.580011487
8.403158188 1.098309278 0.1382685304
5.89665699 4.686815262 1.518688202
2.076238632 8.128186226 1.878428221
4.794887543 0.1347295046 0.4017060697
4.201619625 1.803951263 1.713821769
1.5841254 6.448890686 1.835880995
0.2671726942 7.059738159 1.022996902
0.1977328062 5.086894989 0.5999814272
4.258870125 6.067173958 1.225685239
3.228158474 8.505950928 1.265252829
5.941516876 0.05981099606 0.4801047742
8.658573151 9.991518974 0.8868910074
1.77763021 4.379563332 1.438613534
1.656694531 6.112743378 1.411515474
10.07410431 4.407240868 1.670993209
6.285659313 5.714566231 2.457561493
1.244267106 5.15391922 1.872904181
6.213291168 4.822900772 1.315895557
4.966805935 6.123911858 2.490420818
0.5310069323 6.625844955 0.2096149623
3.830574989 9.079251289 1.414814115
4.63514328 5.799228668 2.425814629
7.392018795 8.808065414 1.24716723
3.523519993 0.3936115503 0.6412037611
1.768813491 4.481380463 1.427106142
1.745738626 4.414812088 1.505899668
2.666804314 1.020074844 0.9664652348
5.267772198 3.992953539 1.183120489
1.701922536 6.605690002 1.574180007
1.696397424 4.499720573 1.651485205
7.671129704 5.759350777 1.132066846
1.826924205 4.093647957 1.567994118
6.109551907 6.419813156 1.557972074
7.95204401 10.40279579 0.9971752167
7.98347044 9.725661278 1.597988605
8.737003326 3.393970251 1.580932856
6.502893925 5.682336807 1.441088915
8.834554672 2.846873999 1.871444464
1.688510776 4.562404633 1.576048732
2.025047779 4.07121563 1.253289104
7.042073727 2.129015684 1.254967809
2.74603653 0.868295908 0.7428170443
3.818548679 9.357941628 1.870819926
7.055309772 0.294757843 0.4835960865
5.451400757 7.598016739 0.04728287458
9.28715229 5.359562874 1.305670619
1.942095399 4.066892624 1.29354167
1.854579806 4.190245628 1.307461381
1.912535548 4.190084457 1.266978621
1.973178744 2.4575212 0.1090369448
8.664447784 3.158706427 1.82998383
1.898779511 3.991923094 1.419390798
6.628098965 10.90741158 0.8410097361
1.856020808 4.06948185 1.421989918
1.677495122 2.725816488 0.2122969627
2.448257923 1.556368113 1.48703444
9.112146378 4.064285278 1.722997427
8.617245674 6.330913544 1.125623822
2.137740612 4.57490921 1.210681796
3.234313965 1.703337431 1.83318603
2.197443962 1.783656597 1.145494342
7.554074764 5.182804108 1.114560366
5.135032654 5.188270569 0.01568965986
2.377639771 2.71242404 1.876244068
0.01570701599 5.516467094 0.627825141
0.20294559 6.230718613 1.167209148
3.315687656 1.415977478 1.738306761
10.77927303 5.516851425 0.2786331177
1.97212255 4.348029137 1.249320149
1.863236308 4.340500832 1.308889627
1.837679267 4.057950974 1.69396317
1.838205695 4.07854557 1.495460629
4.136885166 5.982250214 1.20512259
1.861669421 4.013640404 1.562707424
0.05310249329 6.249345779 0.4993530512
3.610051632 0.4036874771 0.9904729128
0.5083364248 4.720779419 1.410134077
4.764522076 5.22719574 2.500899553
6.435036182 3.114757776 1.125140071
1.798462987 4.170724869 1.577687263
8.213321686 2.797783136 1.496638775
6.450536728 6.148202896 2.562786818
1.785109401 4.231137276 1.509028912
4.385052681 1.991044283 1.270692825
9.975681305 6.015921593 1.790840149
4.373859882 5.770920753 1.345490813
8.572154999 7.979438782 1.633437991
9.755311012 6.093750954 1.855661511
8.250808716 1.19976306 1.374350309
5.670618057 4.671482086 2.384706259
1.653900504 6.301817894 1.491358519
10.45047379 3.268066168 0.7386517525
6.571866512 6.475972176 2.492935419
9.509717941 9.265442848 0.4862583876
6.887532711 6.280222893 2.168400526
1.66459024 5.690499306 1.339541078
0.09034657478 5.750885963 0.238545835
2.050079823 3.557820082 1.78925705
1.798149467 4.2110672 1.437954426
7.224083424 2.005915403 1.723000765
4.847589016 5.054150581 2.491607189
6.275395393 4.11276722 1.140591502
2.728598118 1.374234915 1.514165401
9.139408112 9.582378387 0.1938120425
7.678286076 4.107898712 1.126692057
7.535439014 1.053646326 1.563741922
4.02132988 1.185039043 1.780896425
5.299711227 6.456709862 1.888417602
1.822076201 4.140985489 1.428615212
7.472406864 9.163901329 1.879627705
5.261865616 9.578156471 1.835525036
10.89994907 4.748386383 0.467136234
2.83468771 2.601560354 1.731704116
5.089087486 4.822583199 2.461624861
4.52266264 1.858973742 1.337311983
10.59764385 7.259819984 0.9509811401
1.935985923 3.811960936 1.750023007
8.448202133 2.998408556 1.726900101
9.99331665 2.512078524 1.015449047
4.381230354 1.782406569 1.492513537
4.082418442 9.319022179 1.818595409
10.19565392 4.44948101 1.597308397
2.054459572 3.922831297 1.287963152
8.346470833 10.02832222 0.1294097006
0.3039697409 7.286462784 0.9167391062
4.893088818 9.754009247 1.883831978
8.369207382 2.562498808 1.878493428
7.503254414 4.053711891 1.112215519
6.311286926 5.275579453 1.923061252
5.322638035 4.830854416 2.511175871
1.941022992 3.758455515 1.797434926
0.8067449331 4.857359886 1.683491707
4.778824329 5.577121735 2.501612186
2.073748112 3.620518923 1.574619889
5.642096519 11.08480263 0.6369345188
3.027729034 2.775151014 1.269251823
9.202999115 4.937330246 1.339519024
2.115894794 3.520356894 1.651878834
2.091653347 3.534357309 1.727979779
7.685943127 8.790473938 1.415801167
9.222819328 4.754232407 1.414410591
10.41963863 3.18876338 0.7265441418
2.028648853 3.645173788 1.730166197
1.991623998 3.910987616 1.348050237
6.220446587 1.946932554 1.218595743
4.565662861 5.928689957 1.625692248
9.872304916 8.341695786 0.008766517043
10.19118595 8.336271286 0.249058634
10.65688229 3.938916445 0.07606287301
4.395308495 1.214132309 1.835574389
1.326209664 4.888441086 1.872892737
9.960351944 8.643471718 0.1146243289
5.066637039 0.09961640835 0.2976665497
1.949415088 3.907397985 1.418905139
1.770764947 3.261133909 1.867735863
2.077321053 3.730190992 1.4147892
0.5775939226 7.906786919 0.9771981239
3.299819469 4.734280586 1.123296738
8.892224312 2.324077845 1.699834228
1.957797885 3.822188616 1.575345635
4.597160339 1.932512999 1.269170403
2.037070751 3.720924139 1.495066166
4.657815933 5.242536545 2.389629841
3.103902817 2.688778639 1.268972158
0.4053963423 4.754359245 1.20364821
2.385825157 2.803951502 1.867946863
5.80006218 4.607836723 1.442981124
2.923674583 0.629401207 0.4450108111
5.532847881 4.791825294 2.505491257
1.995711923 3.731633902 1.656411648
9.112963676 9.675004959 0.5258741975
8.731295586 4.350065231 1.174665332
1.604854465 3.691464186 1.871603012
1.484104037 3.793470144 1.859721303
0.01799154282 6.021479607 0.5014441013
5.976676464 3.731592894 0.003971852362
0.9117585421 3.923077345 1.260691404
1.921952605 3.48366046 1.875562072
1.734358907 3.598496199 1.879234672
5.049206734 6.36937809 1.515514731
2.604877949 2.851298094 1.586381793
4.651142597 0.6627817154 1.566292405
6.178300381 6.066696167 2.55997014
7.604326725 2.148946762 1.800115347
7.105661869 1.674371004 1.881193876
1.632698417 3.809367895 1.877196789
5.941819191 9.265625954 0.03707339615
9.33400631 3.22935462 1.799814463
6.170044422 1.65272975 1.658564091
8.612248421 3.196156263 1.72951889
5.054950714 4.035223961 1.217172146
2.456874847 3.005071402 1.582117915
2.421508312 1.446028233 0.3026897609
4.572702408 5.691622734 1.841593742
4.618742943 5.610509872 2.465865612
1.682312608 3.7019279 1.878593206
0.3609325886 4.892089844 0.2817075849
2.159376621 3.303647757 1.820841551
0.884735465 3.953936338 0.8979611397
9.96373558 7.778183937 0.05525328591
3.819994926 2.318612576 1.214468598
5.551552773 4.644228935 1.976899266
5.241184711 0.1188490391 1.092844725
3.704940319 1.27712965 0.1227543801
1.612762332 6.775652885 1.859491587
6.74772501 6.466363907 2.433375835
4.833132744 5.87080574 2.478712559
8.468291283 3.498342276 1.255069137
5.255080223 3.085421801 1.126676798
10.6079998 6.927156448 0.1626435816
3.929363251 1.887662172 1.775180697
4.684727669 5.207785606 2.418943167
5.57642746 6.455020905 2.38589263
0.8244704008 4.152934074 1.538359404
5.537695885 6.488554001 2.240153074
0.844062686 6.782568932 1.636880279
3.265849113 1.97447896 1.876249433
6.708148479 6.531895638 2.370589018
1.272307754 6.14900589 1.870287538
8.225166321 8.407608986 1.768056631
9.386844635 5.007005692 1.805557132
7.612930775 3.458910227 1.125111699
1.986460567 3.593202353 1.83052814
9.516786575 7.431625366 1.827885151
3.645704746 1.817923307 1.874033809
4.721985817 6.050318718 2.404961586
9.020549774 5.661042213 1.18217504
4.789078236 6.109290123 2.435159445
6.863343716 2.682979345 1.149171472
6.188400745 0.1710928679 0.2836098373
4.281559467 7.357315063 1.138964295
7.193686962 1.634800434 1.878377438
1.656818986 6.587792397 1.792725801
2.553965569 6.934781075 1.127958655
4.961637974 4.79213047 2.336772203
2.066846371 3.453945398 1.829631209
1.964687705 3.412763834 1.872364402
3.373092651 10.67099953 0.8452980518
2.180583477 2.440034151 1.822832823
1.866257071 3.839442015 1.832686901
3.583388329 9.712677956 1.80246222
9.225050926 4.507008553 1.578309178
1.335734725 4.019169807 1.845516682
9.10781002 3.177808523 1.864869833
1.890209079 3.783257246 1.83492589
8.63353157 3.068466902 1.847614884
1.918369174 3.723327398 1.833795667
1.881421685 2.467481375 1.657084584
1.408323169 5.682483673 0.03168615699
6.025249958 3.632160902 1.113609672
1.162060142 3.699561834 1.708019376
9.62293148 4.05817318 1.835929394
1.89685905 3.543026686 1.875095129
8.29046154 1.125209093 1.292857051
0.8150891066 4.109823227 1.454773784
1.826869369 3.698724508 1.872541785
0.7238653898 6.668442726 1.574268103
2.192150593 3.162990332 1.846516371
9.917556763 3.632313967 1.592198968
3.185789585 2.608251333 1.268512845
7.901840687 8.642561913 1.544182301
9.349756241 4.018310547 1.877653003
1.978864074 3.281625509 1.876538992
1.023232818 3.768636465 1.531240225
1.98160851 3.043035269 1.876880407
4.616502285 5.945121765 1.75762248
3.075429916 0.5303134918 0.613856554
1.54613173 3.517197847 1.848272443
7.204166889 10.77708435 0.6728641987
4.691874504 5.262647629 2.462213278
3.477585793 8.96354866 1.576274872
8.558290482 2.814424753 1.873911619
6.719182491 4.433838844 1.147983074
6.393454075 4.186786652 1.141498089
3.573750019 2.497343779 1.185803771
10.43548679 6.376748085 1.467224598
4.987295151 3.189171553 1.110476613
1.658747077 3.449322939 1.864076376
1.877894044 3.087795019 1.869881868
1.880826592 3.332523584 1.878830671
7.68613863 4.30574131 1.127171397
9.215281487 3.502499819 1.87219882
7.451108456 2.127722263 1.70858252
2.191923618 2.738927603 1.873544216
9.03412056 3.722550154 1.809512615
6.367073059 10.15120888 1.734606504
4.977338791 0.02456271648 0.4936851859
6.585479259 2.987622976 1.127116084
1.980265498 2.821844816 1.856190801
1.610165954 6.5629673 1.835168362
5.341253757 4.576127052 1.59455061
10.74439526 5.677966118 0.2926462889
2.081606865 2.783438444 1.867009521
2.089204311 2.995336294 1.87816143
2.504792213 1.558523655 1.525046587
8.168168068 9.475380898 1.671746016
5.192267418 6.43195343 2.336109638
8.182705879 3.645536184 1.166350603
7.041413784 4.904251099 1.13802278
5.813878536 7.012070656 1.202030301
1.897106051 8.239384651 0.1000874564
5.571929932 2.854474783 1.115141511
6.061418056 4.973061562 2.29233861
4.859217644 4.989902496 2.469778061
2.349043369 2.434064865 1.857595086
3.526878357 2.323565722 1.271515846
5.932572365 6.079615593 2.551990032
3.559885502 1.874570608 1.871889949
1.803631663 7.717162132 1.877799869
9.451201439 7.966140747 1.738543868
4.217183113 0.1267364025 0.6039017439
2.431521416 2.551878691 1.876069188
0.6292341948 8.049998283 0.9509856701
9.315688133 9.368015289 0.9768856764
8.354522705 7.915267944 1.252013206
7.818124294 3.496052504 1.124055743
4.1764884 0.3311374187 1.159523368
9.390353203 6.760028839 1.880682111
6.614992619 4.439781189 1.178972244
3.423065186 1.100286722 1.592682004
2.366805553 2.621944189 1.876449704
5.451917171 6.298683167 2.51000762
2.849729538 2.55851531 1.7913028
3.462773323 0.4526934624 0.5488244295
3.723378658 0.3035233021 0.7475827932
8.029373169 2.581281424 1.569069028
2.769024849 2.577170134 1.832481503
2.277834892 7.980056763 1.832678676
2.50647831 5.453838348 0.04737564176
0.13263309 6.665049553 0.6686812639
5.846190929 1.950808287 1.202790737
2.834493637 2.516524553 1.8306216
6.967414379 0.3453713655 0.4023068547
2.617891312 2.723035574 1.833075047
4.730035305 5.086992264 2.346428156
4.676214218 1.325193167 1.881941676
7.316060543 9.828162193 1.742516875
2.693744183 2.648923635 1.833406329
2.68970871 2.710220098 1.793469548
2.654603004 2.523113012 1.869481087
1.947410941 5.566157341 1.173933506
2.681400776 2.584128141 1.856420994
1.258086801 3.606207609 1.756209612
4.087069511 9.80147171 1.837833405
3.936242104 9.131779671 1.415036559
7.075109005 3.149276495 1.10993576
3.297925472 9.079875946 1.870083094
4.59696722 1.338902712 1.880625606
6.119368076 6.834399223 1.209753752
2.376227856 2.993416548 1.82413888
4.910103321 1.920138597 1.231675029
10.02896309 2.725797415 0.285643667
3.757583618 9.086351395 1.494904041
6.706235409 4.241546631 1.169078231
4.536942959 9.461054802 1.817005754
2.378317356 3.049784422 1.780202985
6.754241467 8.530482292 1.140591621
5.787897587 6.417040825 2.07509017
1.300047278 3.581992865 1.774569154
2.543753147 2.85755229 1.790476322
10.9368515 5.188551903 0.4756439328
0.5788379908 4.507604599 1.396415949
2.557450771 2.784451246 1.831095338
6.240741253 6.521690369 1.519689798
4.958926201 1.152521133 1.854597092
6.359264851 1.200650215 1.852849126
2.452281952 2.727800608 1.869574666
3.245806217 1.801001787 1.857718825
2.920304775 2.525985479 1.731077194
7.829514027 0.9649538994 1.398168325
3.077975273 2.181411266 1.870418072
5.202852726 8.352646828 1.127353787
2.769701481 2.691219091 1.578898311
10.28404427 7.97068882 1.008849025
5.395555019 6.48331356 1.90413475
8.473581314 2.936309576 1.828098178
2.802308083 2.644695997 1.658529639
3.623422146 2.050154924 1.731883287
2.750426292 8.667240143 1.871978045
5.00670433 1.725368738 1.344246149
3.270892143 2.127283335 1.856912851
3.538346767 1.044716597 1.591621876
0.1544431448 6.696148872 0.4412815571
8.482924461 1.433897495 1.406528711
4.238877773 1.140252113 1.790443778
5.733483791 10.52100563 0.1435242295
0.9286478758 7.063107491 1.6420784
3.270852566 2.357210159 1.414150715
1.575578809 8.469657898 1.604512334
2.749522209 2.6807549 1.73301661
6.343178272 5.079597473 1.557340503
2.766263962 2.979699373 1.297126174
8.059719086 7.530099869 1.137248993
1.47225225 4.044898987 1.868340611
8.707665443 3.317537546 1.728357315
5.431413651 4.71313858 2.462167263
2.179002285 6.883482933 1.186561704
3.056949615 10.32526207 1.223418593
1.311104178 5.810177803 1.875570059
5.500662327 5.975723267 2.55239749
8.009347916 10.40009975 0.3105606735
1.464007735 6.441841125 1.875036716
6.741019726 4.799616814 1.22542882
2.588351727 2.897741079 1.508689761
3.515668392 4.298786163 0.01690698043
2.663825035 2.887183905 1.427504301
1.927081943 6.800829887 1.274886012
2.58049202 2.947630644 1.436624408
9.684950829 7.354776382 0.03569603339
9.284223557 2.161197901 1.419985771
5.555730343 4.704766273 2.461886168
6.076421738 4.983500481 1.686575532
5.176573277 1.962892294 1.198021889
2.746148109 2.818423033 1.41869545
5.884850979 4.804718018 2.349892616
5.753698826 4.688677788 1.825383306
5.758851528 1.424436808 1.865259409
10.82316875 6.54237175 0.8482636213
6.084736824 5.939211845 2.561290264
8.452280045 2.853526354 1.849528313
9.947577477 3.921221495 0.05135972798
3.06271553 2.018621683 1.872266412
7.283326626 1.849116564 1.871568441
10.56103516 3.564988852 0.6404982805
4.576961517 5.736786842 1.773064494
5.15358448 6.410655975 2.371776342
1.498503089 6.361157417 1.86647594
6.334099293 10.60911369 1.429656386
9.726898193 5.516298294 1.875381708
3.458676815 0.8401443958 1.416002512
2.4977808 2.940346479 1.732849479
5.805557728 2.55112052 1.113295078
3.814029694 9.521935463 1.876261234
2.632781029 2.807899714 1.663315177
10.4453001 3.214086294 0.3063306808
6.666983128 1.782465696 1.651937962
3.6477952 2.060684919 1.578070879
2.921783447 2.755445719 1.334523797
8.370330811 3.141202688 1.337108135
3.145859241 2.799819231 1.221504807
10.48516083 4.405070305 0.05034974217
8.116411209 2.542938948 1.806783795
9.29453373 9.476778984 0.7383214235
3.018785477 2.446221113 1.730469346
4.806524277 4.975691795 2.380311728
5.357280731 1.82433629 1.237725258
8.405531883 9.831853867 0.111725755
9.490960121 6.182692528 1.87908721
1.502550244 4.956157684 1.832727075
5.921833515 9.674261093 1.874493599
1.456211925 6.814465523 0.05330735445
6.034014225 4.929471016 1.875081301
2.981994629 2.489866972 1.656468034
3.104040146 2.438956738 1.493752956
7.387775898 3.885430098 1.106678963
3.051532269 1.929242849 1.860163212
3.040048122 2.459744215 1.575795174
5.147344112 0.7285706997 0.1935833395
3.136184692 2.38634634 1.576172829
10.40896893 6.4815979 0.2287383974
4.848420143 5.983407021 2.477512598
4.427651405 5.822993279 1.410726666
3.267380238 6.136755943 1.12116909
2.946716309 2.535056829 1.5758003
1.845530868 8.418109894 1.757224441
6.083024025 4.239898682 0.004316978157
4.57911253 5.727158546 1.969389796
3.459859848 2.48113656 1.216705084
10.56290436 7.112703323 0.1743542254
4.25712204 9.316637039 1.716301441
5.003371716 6.337394714 1.911571622
3.064997673 0.7136156559 1.101419568
6.441414833 5.641082764 1.897837162
3.354244709 2.454464674 1.269490004
6.429055214 5.693712234 2.234890461
10.46691704 3.585418463 1.042244196
5.29866457 6.450956345 2.395923138
2.415848255 1.958307505 1.714732409
5.195055008 1.73055172 1.282953143
0.4338809252 7.409046173 1.1054883
3.032620907 10.4837265 0.9855667353
6.099579334 4.196862221 1.185866833
3.78042841 0.9454400539 1.592128158
3.436779022 2.381101608 1.271330953
5.843340874 4.70220089 1.565811157
10.53757858 5.46681881 1.420325637
5.333385468 4.656655312 2.313691139
10.81792164 6.699206352 0.6071642637
4.186489582 1.243913412 1.82486403
6.187472343 6.430541039 2.046847105
10.4945612 3.418355703 0.7847692966
4.975839138 0.1550289392 1.106821179
3.22387743 1.596232653 1.79516089
8.680523872 1.275693417 1.163041949
6.625654697 10.93417072 0.1831402779
3.270367622 2.530932665 1.268640995
6.608790874 5.829665184 1.710484147
3.177112103 2.430997372 1.413554907
4.203482628 1.816681623 1.573474169
6.969474316 9.215881348 1.742233276
1.538337111 2.9702003 1.620876789
7.554227352 2.205663443 1.586983919
3.085238934 2.506490469 1.412715316
1.620211482 5.756072044 1.415471196
1.829847693 9.662230492 0.6058897972
2.990511417 2.24456811 1.870224476
3.083642006 0.6825592518 0.26451087
4.311715603 6.362475395 1.197660208
2.953395844 8.693306923 1.831431866
3.083703995 2.589665651 1.335792303
8.72687149 1.099344969 0.4823431969
5.08290863 6.366551399 2.403833389
5.077892303 4.988789558 2.524432182
3.651963234 2.008697748 1.792994499
3.464554787 2.071805477 1.83316493
6.030301571 4.893059731 1.776691794
4.459400177 0.3266346455 1.263000131
2.274228096 1.775861502 0.2084799409
3.449074268 2.129548073 1.792727828
10.33867931 7.937513351 0.9230182171
4.598511696 5.818731308 1.962883472
3.520523548 2.110194206 1.731938958
2.144341946 3.349612951 0.01937108859
3.445002556 2.294601679 1.338672996
7.27569437 7.278410912 1.129390717
3.224664211 0.5611655712 0.982976675
6.229041576 1.84798336 1.280076146
3.573883533 2.164279222 1.415283084
6.709236622 6.512785912 2.422699451
3.469304085 2.2221632 1.41517055
8.19884491 2.936839819 1.337438107
0.4549614191 7.749558449 0.7852926254
7.844910145 0.5669744015 0.3640833199
8.377373695 2.915252447 1.722596645
1.115890384 7.722084999 1.595605731
3.50302887 2.16421032 1.495882869
10.9226532 6.057290077 0.8097845316
1.915879607 8.543809891 1.744569302
3.081369877 2.370279789 1.78794992
5.645462513 1.672278166 1.417859793
4.614737988 1.723475695 1.492218256
3.317234516 2.237138271 1.731211066
3.371798992 10.34505272 0.3014731407
7.665082455 2.185147285 1.798855782
3.234984875 2.315341473 1.576748848
4.826756954 1.856222868 1.274549842
5.579449654 6.520917892 1.81008184
5.604992867 0.1091839075 1.123961568
3.336074829 2.247101784 1.577350497
5.980057716 4.84258461 1.883624077
3.378464699 2.208975077 1.657799602
1.340572953 4.421619415 1.863628268
5.017604828 9.42964077 1.342821479
8.246658325 2.181419611 1.856683731
9.189220428 2.052513361 1.419225812
6.314436913 5.011466026 1.450768471
4.237393856 0.6704959869 0.2049808204
3.332041264 1.64201951 1.831481457
6.106204987 4.958843231 1.517287254
3.982717991 9.769254684 1.837877035
2.620347977 10.33475685 0.7558448315
6.254961967 10.34800625 0.1331329644
5.695536613 4.945916176 0.01274136826
4.5830369 5.786403656 2.276953459
5.35892868 11.0160141 1.0498631
4.182118893 0.141587615 0.4899299145
2.943607807 1.903992891 1.841629028
4.149045467 1.69040513 1.854496479
6.598842144 6.214446068 2.555873394
1.673080802 6.791807175 1.83358252
3.660337448 1.952999353 1.834060907
3.542232513 10.48073387 1.284980536
0.7106598616 4.47604847 1.55165565
10.39629078 7.812684059 0.9239425659
5.070901871 4.758704185 2.376685143
9.378972054 5.583647728 1.586261749
7.023657322 3.874379873 1.134398699
3.389813423 0.6474292278 1.212763548
9.827019691 7.862269402 1.525945306
0.5590404272 8.010744095 0.7494426966
4.966732025 6.263116837 2.454750299
3.159722805 1.953124285 1.871976495
0.4333136082 6.227863312 0.1535448432
5.893126965 5.074224472 2.535941601
2.96622324 2.088193417 1.87281239
8.099164963 8.496417999 1.592664361
1.752332568 9.615553856 0.9857140779
4.072363377 5.781485558 1.236365795
7.510557652 0.4388121367 0.2697803378
3.564781189 2.011633635 1.83289063
3.364251137 2.133506536 1.833219767
1.387493968 6.757540703 1.871887326
7.169290066 7.458423615 1.129791737
2.489751339 1.261349916 0.7520127296
4.843309879 4.941155434 2.408895016
1.648800731 9.516313553 0.9856154919
1.732528806 2.546750784 1.024249196
5.804967403 5.917341232 2.562437057
3.468944073 2.00459981 1.857001305
6.902495861 1.590981483 1.881887674
2.977138042 2.396481991 1.827361822
1.681296468 6.231348991 1.40985167
6.104786396 5.548336029 2.530662775
7.32575655 4.029414177 1.103252888
4.439603329 9.684178352 1.879457355
6.038053989 5.416631699 2.537985563
3.08672905 2.250587702 1.856186152
5.654792309 5.379172325 2.539175272
6.027535439 0.02867817879 0.5971469879
5.574594975 1.793479204 1.273818016
4.949922085 1.80790925 1.278105617
6.605219364 10.86874294 1.009489059
5.5216465 11.06635475 0.5099344254
3.63462019 1.742210627 1.878844738
1.177106738 4.418912888 1.829345703
6.897794247 7.338234901 1.157427907
8.115363121 8.443194389 1.454354405
6.468142986 1.802161932 1.413593411
6.100599289 11.01995182 0.3843916953
10.26362991 3.350892782 1.220850348
9.436861992 5.951239586 1.854011416
0.6893860102 4.322734833 1.427091122
5.757051468 9.836443901 1.873917818
3.136255741 1.766906977 1.835499167
5.498131275 4.640958786 2.031702518
8.160045624 3.768325567 1.1603297
0.1258980036 6.564212799 0.4242148697
7.136860371 8.186554909 1.117110491
3.685246468 1.394028664 1.814062238
3.605430126 1.463082552 1.82376945
6.273174286 5.59296608 2.441174507
5.958268642 6.169086456 2.515850782
4.280179501 1.035212755 1.745353699
9.546429634 4.815500259 0.0253129378
8.522953033 2.619923353 1.877544403
3.604343891 1.351876497 1.781869173
3.612775326 1.565412521 1.853106022
3.41977644 1.473008156 1.789870143
0.09978151321 6.436148643 0.4171732366
7.688770771 0.4771010876 0.5986545086
5.359855652 6.459195137 2.399738789
7.198987484 6.531105042 1.254432321
5.348443508 0.1744103432 1.190657735
7.115489483 1.974359274 1.577730179
9.475518227 2.624950171 1.523214459
3.427884102 1.582217455 1.829962015
3.448557377 1.772525549 1.871478319
1.733446479 6.467606544 1.408843398
6.949470997 6.404794693 1.56727457
3.437885761 1.681769133 1.856301069
6.780108929 8.040538788 1.118717313
5.168612957 4.749121666 2.412967205
10.5458374 4.234904289 1.256609917
4.815095425 5.019265175 2.457473755
3.539450169 1.715379953 1.871822238
7.557313442 4.519512177 1.115316749
1.293607593 6.75573349 1.852300882
4.579939365 1.668633223 1.753163576
1.639869094 6.678156853 1.834378004
5.995281219 5.334897995 2.542491198
3.872897148 1.789234877 1.859787107
8.996487617 4.826462746 1.214498043
8.024802208 2.502523661 1.757640839
3.842903137 1.880224943 1.824423671
3.159389019 6.744503021 1.105615973
10.19486523 2.788657904 0.9238548279
3.870587826 1.715909719 1.877105117
10.73731422 6.964618683 0.6062361002
6.205384731 10.63001156 1.429752588
6.292915344 2.11902976 1.172951818
10.79379749 4.369399071 0.1068386361
4.149833679 1.618557215 1.87384367
0.9747160673 4.932923317 1.784838676
5.704789639 6.351717949 2.45835638
2.84826088 1.320318937 0.1044268161
4.162201881 1.526114225 1.883241773
8.993710518 9.722221375 0.9559159279
1.574281573 5.764850616 1.578080773
6.856091976 0.3381106853 1.176503062
4.942108154 1.697102785 1.418214679
6.772571087 7.771477699 1.124656081
3.850214005 1.311053991 1.808302045
3.849838257 1.440393925 1.848042846
4.838851929 2.630371809 1.118860602
6.794781208 9.286366463 1.593378067
3.847453117 1.554261923 1.872248054
5.440170765 0.727755785 1.653667212
8.492636681 8.106866837 1.767661333
7.012551785 6.111745834 1.588581681
6.829402447 1.828216076 1.726148844
2.772856712 0.851783514 0.3340393007
9.420063972 2.757405996 1.612783551
10.61891174 7.336521149 0.3027538061
5.007392406 11.03476048 0.4899485707
4.49696207 1.204277277 1.84177959
4.685098648 1.751931429 1.41422379
6.36665678 7.923596382 1.112171531
3.108995914 0.8176884651 0.2216505706
9.040277481 1.391221762 0.9334566593
10.93495464 5.459264755 0.7238863707
0.6109441519 8.144687653 0.6213247776
8.483465195 0.9530155659 0.7290947437
7.334403515 1.733466387 1.881192207
4.438470364 1.117031813 1.802969337
4.669983864 6.001900673 2.028163671
7.90798521 8.655072212 1.632041931
6.826648235 1.263290644 1.833868623
5.632129192 4.372142792 1.28342557
7.122276783 8.751184464 1.182282448
4.285943031 1.383799314 1.870541215
4.339425087 1.307749271 1.857784867
7.792999744 5.532859802 1.122036099
9.370956421 7.061864853 1.879510403
9.040605545 6.079728127 1.190169692
4.38004446 1.380645514 1.876072764
1.949478507 9.867195129 0.7344191074
2.009411812 2.081035137 1.000818014
6.723994732 1.593567133 1.871628284
4.006310463 1.489364386 1.87099576
6.594627857 8.895195007 0.02180520818
4.277812004 3.391973257 1.105535984
0.80527246 8.149477005 1.163115621
4.134026051 1.328033447 1.845536709
4.606178284 1.194248915 1.847848415
6.424101353 9.278208733 1.335252643
5.011994839 6.354734421 1.582331538
7.749992847 3.941733599 1.124113917
2.339672565 1.523063898 0.9477239847
5.491994858 4.654233932 2.372401476
4.547000885 1.280742407 1.867243409
6.569163799 4.162716866 1.145629764
4.626984596 1.3840487 1.883708358
1.55268085 6.549024582 1.860427737
0.8204265833 6.42927742 1.666407704
4.47854805 1.362193346 1.878561139
1.05447185 5.669142723 1.831704855
4.761710644 6.917768478 1.150297284
8.68964386 3.537153959 1.37174964
4.588220119 1.617875814 1.810640335
8.489572525 8.153831482 1.819720387
5.080839157 9.382409096 1.279482722
5.573251724 2.267657995 1.160304904
1.569218516 3.004863501 1.720713735
4.863292217 0.04063010216 0.7421895266
1.040140986 8.864349365 0.6136968136
4.371961594 1.683578968 1.815559149
2.531095028 1.19730401 0.6019617319
2.694221973 1.063756466 0.2434149683
5.126469135 3.814431906 1.160200357
5.049599648 4.751727104 2.340385437
4.486819744 1.647427797 1.812924623
4.088619709 9.649461746 1.87237668
9.032494545 1.5748384 1.164560914
0.1646254063 5.759933472 1.190389991
6.654977322 8.240978241 1.121114969
9.3341856 6.329794884 1.835069656
8.326356888 2.593640566 1.870980263
4.355343342 1.740317345 1.757321477
9.398757935 4.417264938 1.878676891
1.800056815 6.966929436 1.729710698
4.07234478 0.1812617779 0.720690012
4.6070261 1.550757408 1.846944928
1.069203496 4.523042679 1.800130486
9.067929268 9.599806786 1.054264903
5.960559368 10.66296673 1.430698276
7.149904728 2.004246712 1.499431968
4.621543407 1.474797487 1.870506048
2.933220387 9.556082726 1.694526196
0.5256477594 5.940933228 1.516393781
4.015156269 1.814304113 1.820141792
