# .PCD v0.7 - Point Cloud Data file format
VERSION 0.7
FIELDS x y z
SIZE 4 4 4
TYPE F F F
COUNT 1 1 1
WIDTH 1340
HEIGHT 1
VIEWPOINT 0 0 0 1 0 0 0
POINTS 1340
DATA ascii
36.77429199 58.88609314 3.024958849
38.85429001 54.70579529 10.21158504
36.97546005 58.76013947 3.070298433
44.19836807 57.4390564 5.0558424
36.57073975 59.08864594 2.973305941
36.97993851 59.38658905 2.621735811
38.8277626 58.88001633 2.450209856
36.80635452 59.61594009 2.592423677
38.38288116 56.1360817 6.159920692
42.71794891 59.52708817 3.069503069
37.10528564 59.87643814 2.396109819
34.62599945 56.66394424 9.630820274
34.96068192 56.86323929 10.26017857
37.50551987 59.83590317 2.255040407
33.84923172 58.57410049 7.205122948
43.88627625 55.99512863 7.371670723
37.35977173 60.03491974 2.290250063
39.47082138 55.92153931 6.651833534
41.14196777 54.70792007 10.03579807
37.88017654 59.20001602 2.418305635
37.83612823 59.66357803 2.229991198
38.03463745 60.35911179 3.664475679
42.87117004 57.26272964 4.452404976
38.22680283 58.77891922 2.71269536
37.06501007 60.70988083 2.892155886
38.34810638 58.74306107 2.791115999
44.54751587 56.69260025 7.305897713
39.32932281 56.75469208 5.324105263
38.48725128 58.90135574 2.494553804
40.98603821 59.30121231 2.573621035
38.28569412 58.86357117 2.575347185
43.82992554 58.32999802 3.975520372
38.73537064 58.7759819 2.608655214
38.8584404 55.84865189 6.550131798
38.70291138 58.97913361 2.374673128
38.24855804 56.14634705 6.339352608
39.24573898 58.80013657 2.467683077
38.16386032 57.39044952 6.146607399
39.07823181 58.84615707 2.441334963
38.87267685 55.82608032 11.85613537
39.21343231 58.89509583 2.360833406
38.40624237 56.06907654 6.330605507
38.86777496 59.04696274 2.292624712
38.84573746 56.43463135 5.584555626
41.00444031 55.48639297 11.35996723
43.99829102 58.10685349 4.28942585
39.12990189 58.99629974 2.286967516
39.37763977 58.94868088 2.293227434
35.03253174 57.43064117 5.962182045
35.32961655 57.22082901 7.380318642
40.9582901 58.85783005 2.43689847
39.43648148 59.01552582 2.244288683
42.16020966 59.70449448 3.034560442
42.89540863 56.11650467 7.092782021
41.51069641 59.96127701 3.03660512
41.08840942 55.17023849 9.23133564
42.71336746 59.79882431 3.299508333
40.45652008 59.69817352 2.644101381
41.48255539 58.91752243 2.548676729
36.08057785 55.53386307 10.40083408
38.64492416 55.05866241 9.750069618
40.46983337 56.77772522 7.403962135
41.75782013 58.46066284 2.818812609
41.781353 59.20487595 2.702410936
36.43600845 56.20786667 9.030112267
42.73915863 57.29556656 4.91127491
44.257267 56.33826447 8.573342323
37.03521729 57.0522728 7.782488823
40.84538651 58.65421677 2.505963564
41.05243683 58.73255157 2.491957903
38.45847321 56.11029434 7.039223671
35.71549988 58.8069458 3.636689186
37.343647 56.68919754 8.383118629
35.78453064 57.63891983 6.909777641
43.13687515 55.30903244 9.273848534
37.73318863 56.01759338 9.476166725
41.16915894 58.60095978 2.590956926
41.34268951 58.56203079 2.65057683
36.13792419 57.5240097 7.063506126
41.77150345 58.77001953 2.630250216
41.54712677 58.35760498 2.858641863
42.86500168 56.57213593 6.903027534
39.15230942 56.09164047 7.29011631
35.13660049 57.1126976 6.708542824
42.84666443 55.23203278 9.81025219
41.54177856 58.51150513 2.729090929
42.46583557 58.91046524 2.822364092
37.51640701 54.97646332 9.970017433
39.79433441 56.76254654 5.675034523
41.99567032 58.59841537 2.79407239
40.05725098 54.64222336 10.52335644
37.38283539 57.53977585 6.805256844
41.97874451 58.41078568 2.918940783
38.33553696 56.18141556 6.616816521
43.19401169 55.44569397 8.146479607
41.98880386 58.75774384 2.702508211
43.89551926 59.00618362 4.115469933
42.62743759 59.22852707 2.925305605
37.86840057 57.58726883 6.268805504
39.83174896 56.66052628 5.700282097
36.8013916 55.3763237 9.356509209
43.04217148 59.16232681 3.111058474
43.04233551 59.62716675 3.259751558
44.28538513 56.38103485 6.982611656
43.01185989 59.5640831 3.494399309
43.13492203 59.50958633 3.295792818
35.3014946 55.91408157 9.117825508
43.19934464 59.0410881 3.239661455
38.77128983 55.79589844 6.665034294
42.98931503 58.87232208 3.104161501
43.32478714 59.15774536 3.418925524
34.69816971 56.69960403 7.498425484
43.35634995 58.64033127 3.443570375
35.38241959 59.38075256 3.551436424
38.17523575 56.74689484 6.629763603
43.37853622 58.91903687 3.411339998
42.55673218 58.17629623 3.292800188
42.82498932 58.31554794 3.310399294
43.55121613 58.22367477 3.805272341
42.73170471 58.07468033 3.445737123
42.91825104 58.58813858 3.187276125
39.23106003 55.8813858 6.725813866
42.7264328 58.68822098 3.033303499
37.14863586 55.3490448 9.477753639
37.80233002 59.37747192 5.590577126
43.26594543 58.3605423 3.527268648
43.69927979 58.72011566 3.759770632
38.17223358 56.2720871 6.118390083
42.64976501 59.57387924 3.888077974
43.71527481 59.12714767 3.989091158
39.29543686 55.87931442 6.487425804
43.64395142 58.46481323 3.761502504
43.94907379 58.89168549 4.190979958
43.89131927 58.56642914 3.998177767
38.30610657 56.35134888 5.85847187
43.05919266 57.74141312 3.900965929
36.21430206 57.20494843 7.655930519
43.3965416 57.96849442 3.880740404
36.99619293 55.69426727 11.39430904
36.60167694 58.43260193 7.558390617
35.18940735 57.52742004 6.182442665
43.39944458 58.2583046 3.682461977
36.00584412 55.60089493 9.143717766
43.74899292 58.1252594 4.006760597
43.67865372 58.18827438 3.908814669
43.27021408 57.5276947 4.241362572
43.03735352 57.45101166 4.209591866
35.6853447 58.2256012 4.302414894
43.82377243 57.99934769 4.179684639
41.29968643 55.97081375 8.759327888
43.26499939 57.23215103 4.583394051
37.33916855 60.60242844 3.278149843
43.5243988 57.33828354 4.604743004
35.24937439 56.47951508 7.677430153
35.52476883 57.98320389 4.971619606
35.6907196 60.39984894 3.92400074
43.79084015 57.50818634 4.605658531
43.89556503 57.79947662 4.417443275
35.53632355 57.73218536 9.077748299
44.0396843 57.69548798 4.630856514
43.93867874 57.25017929 5.025525093
34.62542343 57.53116608 5.967171669
44.53907394 57.39190674 5.615603447
38.47877502 55.47520065 9.847029686
43.44906235 56.94213867 5.06887722
44.04190063 56.96701813 5.505223274
34.8547287 56.99670792 6.769701958
43.5043335 56.69839859 5.466771126
43.9161377 56.70926285 5.774544716
43.04902649 56.81042862 5.326870918
36.65593338 60.48241806 2.82160306
43.09022522 56.72553253 5.47214222
35.73790741 58.22241592 4.768284798
43.29175949 56.82937622 5.189831734
43.2423172 56.96705627 4.969908714
36.65590668 59.8182373 2.615603685
42.98411179 56.9626236 5.79472065
41.25439453 55.53429794 9.178400993
38.23127747 55.43050766 11.68434048
43.3370285 56.71479416 5.385361671
43.86699295 57.16013718 8.216000557
43.0575676 56.60303497 5.855599403
43.14530945 56.48246765 5.905619621
43.02974319 57.03917313 4.854418755
36.30517197 55.54826355 10.8242445
41.60059738 54.84989548 10.40426159
42.04973602 55.59287643 10.97204304
43.70900726 56.319561 9.143370628
43.14942551 57.10758209 4.729771614
37.14458084 55.10021591 9.779765129
44.1289978 56.72302628 5.989340782
38.11873245 56.43372726 6.027253151
44.37460709 56.8948555 6.029517174
44.01938629 58.64587402 4.292035103
44.52716827 56.83504105 6.521479607
35.21085739 57.49072647 6.587124825
43.84008026 56.47477341 6.121972084
41.49327469 60.04661179 3.393615007
43.54462433 56.27524948 6.241606712
37.42025757 54.98070145 10.03489399
44.26795578 58.45081711 4.632966042
43.84449005 56.35758209 6.357369423
44.5079689 56.85751343 8.034485817
44.03713226 56.24098587 6.866383553
43.80591965 56.14928055 6.779156685
33.72061157 58.37641144 7.195778847
38.11186981 56.47256851 6.132998466
44.46746063 56.57322311 7.024041176
44.21752548 56.1880188 7.45348835
37.23578644 60.3636055 3.847497225
43.66648102 55.9835434 7.066439629
36.01745605 58.38274002 4.408209801
39.53699112 55.90513229 6.455573082
44.0796814 56.03485489 7.708992958
36.20057678 55.67935562 8.929871559
43.96657944 55.90531921 7.968319893
36.92567825 59.90056229 4.724442482
44.04244614 55.90029526 8.563195229
44.35868835 56.32988358 8.07215786
44.26652527 56.20885086 8.326191902
44.33787155 56.59947968 8.544993401
38.83263779 55.91191864 6.438757896
40.03797531 54.85660934 11.26474857
44.15782166 56.09280014 8.570763588
43.93360901 56.14500809 9.014878273
35.65571594 58.32518768 4.138735771
40.1386795 56.56764221 7.975266457
39.998703 57.22964096 5.925250053
43.81755829 56.69274902 8.786444664
43.65937805 56.16014481 9.431048393
42.6772728 56.80229568 8.945998192
43.74504471 55.78334427 9.242638588
35.28660202 56.82274628 7.461091042
39.70788574 57.20009995 5.722132683
35.56421661 56.89573288 10.59349346
43.76805878 55.68788147 9.008780479
43.43291855 55.5153389 9.414601326
34.88274002 59.94945908 4.317368507
43.57859039 55.69202042 9.449349403
43.32060242 55.55132675 7.917805672
38.21144485 57.08980179 6.316283226
43.73771286 55.6568718 8.472603798
40.40191269 58.74102402 3.120839357
43.06733704 55.3565712 8.337096214
38.10016632 57.38365936 6.562792778
42.96810913 55.4227829 7.945446968
38.64321899 55.34649658 11.69077778
43.11925888 55.30929565 8.790963173
42.74695206 55.25691605 8.311377525
42.94573975 55.27496719 8.524823189
42.8250885 55.19950867 8.713387489
37.80433273 56.78944778 7.992030144
41.41393661 55.7916832 8.927937508
43.1211853 55.39591599 9.728201866
42.47166443 55.05423737 9.105648994
41.98796082 54.91853714 9.18764782
38.36327362 56.42658234 6.774668694
42.25170517 54.97249603 9.293400764
41.73854065 54.90245819 9.132212639
38.49931335 56.49949646 7.228104591
40.48332214 54.94068909 11.30821514
41.9084549 54.95491409 9.001763344
36.44018936 60.15014648 4.378745079
35.7133255 57.32075882 9.784731865
33.6985054 58.0970459 7.193961143
42.25615311 55.07722855 8.698475838
34.31600571 59.33763504 4.715176582
42.22187042 55.26314545 8.389712334
41.1583786 55.88873291 8.935801506
42.09792709 55.36011887 8.42082119
38.82658386 54.75375748 10.04788685
42.40253067 55.20392609 8.388819695
41.52870178 55.01626587 8.968457222
34.14156723 57.89917374 6.087285042
38.16515732 56.65376282 6.441658974
37.42350388 57.81735611 6.14493084
41.56974792 55.14305496 8.878018379
41.5638237 54.86895752 9.220231056
38.54476166 55.31555176 9.845158577
42.7421875 57.42684555 4.997509956
41.53271484 54.92561722 9.089482307
41.20473099 55.06079865 9.120163918
38.63259506 55.86943436 6.633250237
41.20625305 54.96627426 9.159815788
41.47755814 55.24995041 8.979662895
36.00506592 58.38195801 3.941428185
41.6591835 55.30238342 8.850335121
41.28382492 55.20500565 9.109652519
40.89273834 55.14230347 9.340758324
35.21835327 56.1686554 8.268019676
40.67939758 55.57073212 9.439936638
39.7434845 56.03202057 6.240283012
40.84891891 55.45203018 9.415038109
41.05047989 55.49991226 9.290757179
40.5228653 56.45141602 8.132044792
40.93876266 55.88244629 9.007826805
40.5284462 56.60907364 7.809996605
35.66594315 60.08422852 3.338952303
35.706604 57.74258041 6.727395058
35.3600235 56.61600876 10.59690952
39.34053421 54.86361313 9.763144493
41.70410919 55.92650604 8.597319603
36.47393417 56.50624084 11.14143658
35.21525192 60.21578598 3.960808754
41.54473114 56.13496399 8.389737129
37.49167633 55.38888168 9.631178856
37.3945961 57.25664902 7.278103828
37.65579605 56.51364136 11.00538158
43.07963943 59.15860748 4.513817787
39.90613937 56.59719086 7.88285923
40.12714767 56.06853485 8.867756844
39.68337631 56.64638901 7.769631386
39.57276535 56.54101563 7.038035393
39.52166367 56.33075333 6.927401543
39.62519455 56.66905975 7.15661335
39.77643204 56.72939301 7.247700691
39.70082474 56.47887802 6.879769325
39.73823547 55.80601883 9.463671684
35.32138062 58.28570557 4.37548542
39.83743668 56.66659546 7.073361397
38.75248337 56.33078384 8.656952858
39.62970734 56.25709152 6.758263588
37.53024673 55.24926376 9.601998329
34.39877319 56.64677048 8.996750832
34.85839462 57.32304764 10.00774288
39.71675873 56.19953537 6.54162693
39.66387939 56.04977417 6.507714272
39.61388397 55.96263504 6.464167595
39.51132202 56.03780365 6.737895012
37.69371414 60.46767426 3.475167513
38.83141708 56.22807693 5.926484108
39.34951782 55.90036774 6.705752373
39.19933701 60.09653091 4.006821632
35.33150101 57.78701019 5.382733345
39.46971893 55.93298721 6.299693108
33.71880341 58.50735855 6.392310143
40.1753273 55.76669693 9.375658989
39.67810059 55.98293686 6.320637703
39.38220596 55.87860489 6.596129417
39.03991318 55.86383438 6.518420219
36.60334015 60.59056473 2.99205327
35.35434341 58.67786407 3.988841057
39.11815262 55.84982681 6.575461388
37.87165833 55.66902542 11.72581768
39.03318024 55.83411789 6.603695869
38.65543747 56.06855774 6.188858986
38.78513718 55.99841309 6.283501625
37.8214798 57.0444603 7.512600899
38.43602371 56.10503769 6.187584877
38.39284515 56.20411682 6.039322853
38.75886536 55.90896988 6.455388069
38.58419037 55.96133423 6.435463905
36.93474579 55.23933411 9.56025219
38.66358948 55.93315887 6.442149162
39.20748138 55.60866165 9.787407875
38.79113388 55.67417908 6.884091377
38.73304367 55.84758377 6.585396767
38.40253067 56.10365295 6.220358849
38.33014297 56.11358643 6.295245171
36.77633667 56.49579239 8.819531441
41.94440842 55.40168381 8.620154381
36.82284927 60.63264084 2.862754107
36.65494919 56.14043808 9.204894066
37.7481842 60.46030807 2.425288439
38.4054985 56.04330826 6.435996056
38.26604843 56.17055893 6.232640266
37.37197113 57.33388901 7.124260902
38.2862587 56.19484711 6.136063576
38.23001099 56.34221268 5.916361809
38.21359634 56.22342682 6.171242714
38.30374908 56.84784317 7.54103756
38.13501358 56.31835938 6.088021278
44.43064117 56.44902802 7.815054893
35.6313858 60.32258606 4.124371529
34.67226028 59.02610397 4.346018791
38.18124008 56.40831375 5.865775108
38.14078903 56.4108963 5.948281288
38.12085724 56.31861877 6.15339756
38.12379837 56.36782455 6.051098824
35.35035706 57.92861557 5.747553825
38.12490463 56.53077316 6.020188332
38.77404404 55.51966095 7.281823158
36.39851761 57.14152908 7.753090858
38.16761017 56.3702774 6.44337368
39.23031616 56.02054977 6.983693123
36.38514709 58.44594955 3.921484947
38.1402092 56.33565521 6.332406044
33.80005646 58.86723328 6.097798347
36.35906219 55.36467361 10.28583241
38.16853714 56.27482986 6.406306267
38.11883163 56.40481567 6.238690376
38.751297 54.83082581 9.896771431
38.12837219 56.53199387 6.264910698
38.14842987 56.67418289 6.310494423
38.21458435 56.40565109 6.561343193
42.40085602 55.92411804 10.86168766
38.16317749 56.84228897 6.825890541
34.69919968 57.2738266 6.335810661
38.18846512 56.89653397 6.31947422
36.84486389 57.37853622 7.203682899
35.70987701 58.15541077 4.474539757
37.64912415 57.42552185 6.864850044
35.67149353 55.68640137 9.448596001
35.50215912 57.61797333 6.876563072
36.56698608 57.61404037 6.868155479
35.17804337 57.17811203 6.838662148
35.20737457 57.58717346 5.778647423
42.84842682 56.04822159 7.233124733
35.19734955 57.05813217 7.04978466
35.17366791 57.29927444 6.620516777
35.15216446 57.37485886 6.241383553
42.4432106 56.79782486 6.964510918
35.31371307 57.6715126 6.55643177
35.68623734 57.99475098 6.13903904
35.45309067 57.99047089 5.946072578
35.35203171 57.7774353 6.354241371
38.3542366 55.57788849 11.78496456
35.22047424 57.63714218 5.968075752
35.271698 57.74315262 5.760811806
35.41385651 57.94713211 5.352456093
36.13672638 60.39284134 3.195538759
35.86391449 55.77653503 8.816123009
35.33633423 57.84651184 5.55574131
35.67604446 58.28418732 5.351225853
37.9689827 55.4336319 9.806483269
35.77687836 58.37220383 5.164219856
38.11264038 55.28812408 11.56115627
35.75476837 58.19368744 5.754807472
35.50753021 58.04261017 5.153443336
36.16276932 58.61643219 4.619450569
36.29914474 58.69232941 4.444184303
36.02988815 58.5368042 4.801243782
38.78553009 57.12551117 5.508568764
36.16527557 58.5265274 5.036335945
37.0220871 60.66355515 2.74561429
35.82797623 59.12398529 6.417668343
35.40860367 57.93356705 4.951806068
37.9969635 56.00984192 9.444781303
35.37151718 58.16848755 4.503018379
38.37885666 60.70033646 2.855368853
35.43973923 58.07236481 4.64236927
35.15871048 56.02152634 8.953299522
35.25754547 58.08456421 4.683514595
35.08030701 58.5052948 4.354718208
41.8891983 55.21599197 10.80351925
34.51366806 58.93315125 4.559504509
35.30911255 58.55313492 4.12801075
37.96974945 57.65310287 6.098217964
34.6467514 59.25569916 4.289277077
40.97748566 57.15427017 6.643425941
42.42662811 55.71536636 10.73359394
34.90049362 59.0748024 4.101958275
34.97558594 59.44647217 3.881428719
35.9303894 58.57548523 3.692027092
36.22743225 58.73615646 3.391965151
37.94742966 58.71608353 2.927191973
35.99085617 58.82970428 3.447558403
36.09892654 58.95501709 3.298569918
35.96367645 59.21895218 3.217982531
38.31372833 54.77034378 10.3143549
36.25804901 59.11373138 3.110400438
35.6701889 59.39361191 3.33348012
35.24484253 59.99494934 3.718487978
35.86419678 59.49082565 3.148820162
34.10546494 57.30611801 8.942713737
38.16864014 56.21758652 6.295273781
34.40657806 58.34618378 5.181214333
35.28912354 59.82203293 3.590474367
38.37213516 56.05668259 6.46652317
35.51139832 59.86794662 3.394932985
35.3880043 60.24092102 3.81966114
36.79658127 60.46998215 3.526248217
35.10459137 59.83227921 3.782643318
35.33440781 60.19634628 4.092787743
35.19198227 56.36259842 7.865607262
38.57825089 55.74399185 6.903672218
40.90628052 54.68183517 10.12872219
37.15725708 55.49357224 9.504435539
34.96463013 59.69322586 3.901955605
35.58763504 60.17128754 4.347369194
35.16274261 60.05931473 4.183306694
39.46224594 54.66875076 10.46945667
36.97133636 55.90862656 11.4919405
40.04916382 54.80893707 9.670594215
39.48966217 60.32820129 3.443318605
41.78805542 59.23003387 4.910824776
37.54049683 60.2396698 4.081917763
37.02380371 60.20529556 4.233424187
36.78565598 56.15867615 11.45963764
34.87084198 57.19019318 10.14731121
35.23405075 56.93896103 7.25780201
41.23992157 60.01209641 3.657630205
36.87811279 60.20024109 2.557017565
40.16093445 57.13615036 9.252346992
38.46111679 55.9849205 6.661864281
39.22971344 60.21502304 3.741357088
36.36533737 60.5017395 3.109969378
38.4414711 55.97070313 6.974884987
36.20036316 60.30716705 3.028800249
38.60593033 54.78449249 10.76256084
36.34841156 60.16373062 2.856822252
36.66479492 60.1564064 2.667443514
35.27186966 57.79385376 5.241669655
36.67169571 60.62181473 3.162106752
42.97740936 57.26461411 8.246479988
37.73785782 60.63467026 3.184701204
39.25664902 60.50378799 3.187752962
34.84918594 57.5953331 5.686432838
34.19355392 58.12494278 8.325322151
37.93431854 58.98859024 3.936919212
40.43066788 60.2795105 3.257806063
38.35857773 60.63661194 3.081122637
34.72114563 59.77184296 4.29685688
34.80849838 59.59856033 4.080012321
36.05867767 56.18425369 8.777186394
34.47118378 59.44057083 4.499299049
37.33546448 60.68105698 2.595080614
34.51227951 59.85770035 4.718777657
38.89559555 55.59302902 7.118767738
41.81713486 55.36672974 10.99308681
44.28111267 58.18515778 5.912327766
35.08806229 59.99833298 4.676503181
37.35557556 60.7517128 2.710692644
35.11790085 59.7887001 5.1905756
38.60250854 55.55216599 7.239182472
34.39758682 59.73509979 4.910264015
36.75702286 56.84360886 8.225178719
34.52606583 59.5838356 5.184149742
38.77670288 54.85200882 11.09912777
38.08516693 55.01915359 9.771876335
37.63040924 59.96934891 4.484934807
36.76932907 59.68223572 5.253655434
42.32854843 59.42445374 4.349287987
40.88204193 59.46496201 4.674235344
43.89122391 58.88590622 4.705044746
42.826931 59.009758 4.995129585
40.75376129 59.40509796 4.84027195
35.7923584 57.84140396 6.534098625
33.74983978 57.8071022 7.217835426
39.14166641 55.78020859 11.83496571
39.33715057 56.19376373 5.866177559
39.39803314 59.28514481 5.434863091
38.20132446 57.16081619 6.121371269
44.23282242 58.39923096 5.540577888
42.15363312 58.86328506 5.48306942
43.1291008 58.56866074 5.737309456
41.49731445 59.07764053 5.271637917
43.97110367 58.71453476 5.005579948
40.18099594 54.76115799 11.07797337
44.37566757 58.05699921 4.869359016
44.40445709 58.21060181 5.088822365
38.64051819 55.6240654 7.048541069
44.2375412 58.47090912 5.059168816
39.80241394 56.08222198 6.145920753
44.26838303 58.60206223 4.844161034
44.37598801 58.29969025 5.319306374
43.11226654 58.07863235 6.713683128
38.4666214 55.69091034 7.34955883
41.74423599 58.68628311 5.929223061
41.79782104 58.15369797 7.019358635
44.03385925 57.70032501 7.205348015
37.33879852 55.02700806 10.63921261
40.39604568 58.41244507 6.859211922
36.76561737 55.23443985 9.650036812
38.40727997 59.44031143 2.195094347
35.5099144 56.0399971 10.49284077
44.65257263 57.26609421 7.554621696
44.44506073 57.29917526 7.768504143
44.55337906 57.06073761 7.95040226
44.60079193 57.56645584 7.087838173
34.17233276 58.6108551 5.23196888
44.32180023 56.84115601 8.444544792
44.1108017 57.31538773 7.906954765
34.53697968 57.44774246 9.617621422
44.68395996 57.09760284 7.074591637
44.59870529 56.82354355 7.053841591
44.71715546 57.35894394 7.08393383
44.64834213 57.08045197 7.565716743
42.34570313 55.28026962 10.44695377
44.68102264 57.21855164 7.33620739
44.64488602 57.506073 5.828225136
43.22006607 56.21359253 9.870404243
44.62857819 57.66060638 6.059403419
42.75619125 56.34711075 7.323338509
44.53382111 57.76602936 6.280425072
34.35580063 59.43525314 5.469069481
34.33093262 59.06001663 4.722306252
41.57012177 54.94706345 10.7061491
33.95686722 58.99731064 5.418833733
34.07356644 59.11161423 5.182084084
34.34712219 56.69223785 8.593966484
41.81772614 55.35542679 8.728512764
34.09901428 58.83694458 5.183377266
41.08746719 54.89024353 10.93449879
34.83073425 59.04824448 6.581936836
34.0946579 59.06847763 6.278403282
35.60105896 55.75905609 10.07712269
34.08644104 59.33837509 5.691493034
39.96875763 54.74023056 9.796801567
34.96802902 59.44167328 5.867320061
33.86590576 58.87660217 5.641985893
34.12771606 58.90399551 6.66505146
41.31662369 55.49120712 11.30513859
33.91929245 58.6103363 5.64930439
39.27576065 54.71825027 10.77852917
33.80682373 58.75347137 5.874756813
33.76161575 58.63489532 6.128388405
36.19504929 58.21020889 5.792510033
33.82252502 58.35491562 6.127175331
35.85824585 56.18314743 8.542258263
33.96120453 58.69828415 7.095604897
34.00425339 58.81453323 6.810492516
34.36119461 58.85681152 6.961112022
35.47446442 57.29190445 9.886401176
33.69496155 58.36957169 6.665730476
33.72456741 58.62862778 6.630417824
41.76561356 55.7033577 8.750748634
33.83291245 58.43888474 7.43332386
40.54104233 55.08234787 9.49501133
35.01857376 56.23865891 8.324778557
35.95419312 56.10494232 8.656876564
37.1375351 55.05539322 10.17395306
34.47343445 58.04695129 5.435238838
33.75976181 58.04840469 6.714465141
34.26679993 56.79608536 8.469502449
33.70581055 57.97670364 7.44268322
33.85325623 58.30638123 7.67545414
34.22357559 58.391716 7.870089531
37.30424118 55.17490768 9.600661278
33.739254 57.83799362 7.691218376
39.17355728 55.99847031 7.106495857
35.74790192 56.92113876 8.078028679
35.03712463 56.58943558 7.484379768
35.17890549 58.01610184 8.588568687
37.08564758 55.58668137 9.487736702
34.67815781 58.34723663 8.03501606
34.88727188 57.02183533 10.21187878
34.76173019 57.87704086 8.876807213
34.3301239 57.89442825 8.765879631
34.78238297 57.5327301 9.396807671
37.56845093 55.12155533 9.661641121
36.28294754 55.60968399 9.027459145
35.51512146 57.00439453 7.757500648
38.40809631 56.37104416 11.07734585
34.86335754 57.39931107 9.806574821
36.11930847 57.01325607 10.40243435
36.95723724 56.46504974 11.13590908
39.4551506 55.57705688 11.81779194
36.56555939 56.73658371 10.79348278
39.03548431 56.09331894 11.41011143
38.89274979 55.62678909 11.84698582
37.94395065 56.21389008 11.43336582
39.86963654 55.55786514 11.77279949
38.2802887 56.40143585 6.657328606
38.82147598 55.94404984 11.62961102
44.66320419 57.23190689 6.304554939
38.4356575 56.02665329 11.64054775
40.59916306 54.85770035 9.475209236
39.89990997 55.75640869 11.60987759
40.31245804 55.02759171 11.44669247
40.14828873 55.01759338 11.44327641
40.29135132 55.32177353 11.64966679
40.15114975 55.5615387 11.55604458
39.90507507 55.40847397 11.72787762
40.13423157 55.38728714 11.71999454
39.90919495 55.02545929 11.45479679
42.05690384 54.90234756 9.78498745
39.77667236 55.23302078 11.62197208
44.58488846 56.83127594 7.571692467
39.63508606 55.04174805 11.48286343
38.49717331 55.96671295 6.615418434
39.34842682 55.06645966 11.5226717
39.83403778 54.64504623 10.49860859
39.94517136 54.74266052 11.03658772
39.68016815 54.75069809 11.05129719
35.02061081 56.39381409 7.894257545
38.91923904 54.97928619 11.43041325
39.08969116 54.81547546 11.10870457
39.27846146 56.56645966 7.466347694
38.40299606 54.91727829 11.13177395
39.71751022 55.59725571 9.721362114
38.37339401 55.05199814 11.40432835
39.10409164 54.69416428 10.47080517
38.21266174 54.89488602 10.97738552
38.76764297 54.72071457 10.46996593
38.41345596 54.75681686 10.45736027
38.68474197 54.93211365 9.797629356
38.36403656 54.97301102 9.794999123
38.51338577 54.78679276 10.06758595
38.25278473 54.82775497 10.06962681
38.16464233 54.91171265 9.886693001
37.82142639 55.0730896 9.724638939
38.02162933 55.15932846 9.715619087
40.24604034 54.63742447 10.36263752
37.98858261 55.6247673 9.795067787
37.96720123 55.27371597 9.749922752
37.77441406 55.35419846 9.732731819
35.08204269 56.8358345 7.072161674
37.25367355 55.4166832 9.529322624
33.88726044 57.91104507 6.541714668
37.56063843 55.57184219 9.710915565
37.04184723 56.29981613 11.44175053
37.58891296 55.91804123 9.590703011
37.76167297 55.68134689 9.741524696
38.0087738 55.82659531 9.662201881
40.1768837 58.78652573 2.377789736
38.31320953 56.45386124 8.535744667
37.51775742 56.01301193 9.494559288
37.6681633 56.32671356 8.989333153
42.92046356 57.12878418 5.76753521
37.29914093 55.9481163 9.539059639
37.4875946 56.14601898 9.320515633
37.10781097 56.22041321 9.221821785
39.89033508 55.88241577 9.305325508
37.42848206 56.24724197 9.158652306
39.29937744 54.97968674 9.727015495
42.62088394 55.35264969 8.062914848
35.8626442 55.88816452 8.667397499
37.04814148 56.06437302 9.410248756
37.37535095 56.4947319 8.750905037
37.75852966 55.97338867 11.79440784
39.48748398 55.73538971 9.6149683
38.58162308 56.16368866 6.062628746
36.79857635 56.15188599 9.283520699
37.17571259 55.22982788 9.544060707
37.11263657 56.46619797 8.851891518
36.67900848 56.60700226 8.633763313
39.66742325 54.83751297 9.72159481
38.9309845 58.71863556 2.734139681
37.83765793 56.90011978 7.802407265
37.78891373 56.6992836 8.196850777
38.19454193 56.65817642 7.969021797
38.2141571 56.86703873 5.944108009
38.90652084 56.26383972 7.973629951
38.48774719 56.81639481 7.263279915
38.50059128 56.42219543 7.01835537
38.44916534 56.57835388 7.445853233
38.38483047 56.48667526 7.710162163
38.45159149 56.17051697 7.246953011
38.43957901 55.97846603 7.499815941
37.78141785 57.93469238 5.864533424
44.48940659 56.56678772 7.557747841
41.87773514 55.8953743 11.01899433
38.42375946 56.06808853 7.388028145
34.55302048 57.38185501 6.287554741
38.53858566 55.90862274 7.551352501
38.57051468 56.13192368 7.694180489
36.92630005 55.3306427 9.432360649
38.90946198 56.37600327 8.331809044
38.78668213 56.35385132 8.05719471
34.33912277 58.68396378 4.954270363
38.4552803 56.46900558 8.261597633
35.8524971 56.36400223 8.538010597
38.8585434 56.03125763 7.7150774
39.12293243 56.28407288 7.958119392
35.95518494 58.46905136 3.812026024
38.56381989 55.75834656 7.47723484
38.69943619 55.86671066 7.58163166
38.93852615 55.79607391 7.521752357
38.8319664 55.82406235 7.572207451
38.82071304 55.63312531 7.442788124
39.32567596 56.63447571 7.591393471
39.23931503 56.49705887 7.613587379
39.17201233 56.35486984 7.780488014
39.24570847 56.42110443 8.012505531
39.06337738 55.95097733 7.429343224
39.10228729 56.15785217 7.585774422
34.37562561 57.32994461 9.477936745
39.15799713 55.90889359 6.999707222
39.30965805 56.47553635 7.257464409
40.07279205 55.40509796 9.734810829
36.95702744 55.74845505 9.43675518
38.69946289 55.58662033 7.398423195
40.70869446 55.1169548 9.429102898
38.80495453 55.54889297 7.364890099
40.70593262 54.69894028 9.766085625
38.57531738 55.63259888 7.397011757
38.5408783 55.57962418 7.247237206
38.61628342 55.57755661 7.153862953
40.5225029 58.71373367 2.437634706
36.58438873 55.31350327 9.542057991
38.74354172 55.53330612 7.198021889
38.72798538 55.56080627 7.126120567
38.89926147 55.68973541 6.886315346
38.89190674 55.81328964 6.617455482
38.83901596 55.61897659 7.01142025
36.17915726 58.40081406 5.409796715
40.1145668 54.8815918 9.601399422
38.76376724 55.14055252 11.56514263
38.59498215 55.66929626 7.005389214
36.6569252 58.47625351 5.196103096
34.96780014 56.41934586 10.0315752
38.72618866 55.80557251 6.6721735
38.7022438 55.64706039 6.969483376
41.7248764 55.14618683 10.86170101
38.53773499 55.92533112 6.648226738
38.62023544 55.83005905 6.721022606
38.80824661 56.37893677 5.688933372
38.41652679 55.7731781 7.24624157
38.44144058 55.68622589 7.224608421
36.44753265 55.52782822 9.143315315
38.47624207 55.76494217 6.996178627
38.49062729 55.67069626 7.12650013
38.47857666 55.93528366 6.748227119
38.45746613 56.07836151 6.874873161
38.39350891 56.04553604 6.552899361
34.27990723 56.90806198 7.843972206
38.40747833 56.04614258 6.641978264
38.2021904 56.22413635 6.447209358
38.2688446 56.20834732 6.540657997
38.2780838 56.13188934 6.474410057
38.27683258 56.11838531 6.422394753
38.18953705 56.94438171 7.02376461
38.38588333 56.79656601 7.031979561
37.98123932 57.09939575 7.218190193
38.47145844 56.59328842 6.993433952
38.44957733 56.44753265 6.901593208
38.29248428 56.97740173 7.315459251
38.42426682 56.87278748 7.176667213
36.1638298 56.9998703 8.008849144
34.44550323 56.58191299 8.757920265
34.81034851 58.19724655 4.903000832
33.86817551 57.53835678 8.18357563
36.47414398 56.91548157 8.112645149
37.55575562 57.1144371 7.478217125
42.63327026 55.76887512 10.59341145
40.35147858 54.80597305 11.15053082
34.80328751 57.50033951 5.867306709
37.26785278 57.20624542 7.429970741
38.03131866 57.00005341 7.516644478
36.46302032 56.67023087 8.548544884
42.7369194 57.51900482 5.153471947
35.94419861 56.72531128 8.391432762
36.53616714 59.59008408 2.732686281
37.28547668 56.89262009 8.044161797
35.72099686 56.65393448 8.345988274
36.1243515 56.36213303 8.785269737
35.74934769 56.27207565 8.395230293
35.63793564 56.37051392 8.226880074
35.53256607 56.4784317 8.045342445
42.70974731 56.10512543 10.4587698
35.45513916 56.40204239 7.916447639
35.60599136 56.56748199 8.204314232
35.04100037 58.12708282 4.771725655
35.62459564 56.76538467 8.162924767
35.58969498 57.16427231 7.663823128
39.76881409 55.01851654 9.699749947
35.35466385 56.70803452 7.660264015
35.43437576 56.25498581 8.053652763
34.27185822 57.41478348 9.246903419
35.33508301 56.36656189 7.868052483
35.65058136 56.05023956 8.400328636
35.39208221 56.14011765 8.23477459
38.69305801 56.57452774 5.377202034
35.33135223 56.05925751 8.446465492
35.11594772 56.28001022 8.0829916
34.81755447 56.46732712 7.950095177
35.17847824 56.85968399 7.133635521
35.11927032 56.69883728 7.301589012
35.17810822 56.5930481 7.483250618
35.28813553 56.62934494 7.531632423
34.87280655 56.61957932 7.50496769
34.79536438 56.82670593 7.110478401
34.62632751 56.92186356 7.086886406
34.92485809 56.77346039 7.153733253
39.2049942 55.28068161 11.67472744
34.50417709 56.76763535 7.679774284
33.86642075 57.56380844 7.265769005
34.19017792 57.15758514 7.371109962
33.98360825 57.33469772 7.526724815
34.28660202 57.22497177 6.994355202
34.46050644 56.72196198 7.92778492
33.94292068 57.26291275 8.190857887
34.07391357 57.08309174 8.007678032
34.06599808 57.04254913 8.250164986
33.80300522 57.57846069 7.703156471
38.13438034 55.72912979 11.82018566
34.59005737 56.58888626 8.053322792
34.36679077 56.73580933 8.200381279
34.19640732 56.88365173 8.718857765
34.17808533 56.90082932 8.354815483
34.04827118 57.08720398 8.496743202
34.17318726 57.49701691 9.032725334
34.1922493 56.97426224 8.937115669
38.52245331 56.38871765 8.611031532
36.61054611 56.00632858 11.346385
34.11863708 57.0955925 8.848603249
34.33316422 56.90000153 9.206091881
37.64818192 55.03401566 11.08436108
34.62533951 57.24344635 9.899374962
34.5280838 57.24288559 9.750294685
34.61061859 57.11994934 9.860945702
34.65267944 56.93003082 9.854441643
34.7807045 56.97770691 10.06859112
34.479496 56.79086685 9.43137455
34.78352737 56.53635788 9.829964638
35.00536728 56.68232346 10.24306393
35.32917786 56.80421066 10.58988094
38.64608002 55.17054749 9.799815178
35.15549469 56.74924088 10.43935108
36.47896194 57.81289291 6.515666008
35.50184631 56.45950317 10.68557835
34.99728012 56.16238022 9.796473503
39.02847672 55.71819305 7.098521233
35.31646347 56.16611099 10.35405445
37.80003357 54.94347 10.89698887
35.40454483 55.9500885 10.21938419
35.95887756 56.5234375 11.00729084
35.73545837 55.93035889 10.64144421
35.65873718 56.12204742 10.70265865
36.48734283 56.30163956 11.30405712
36.23343658 56.15418243 11.15941715
36.42913437 56.06643295 11.265378
35.86231232 55.72380066 10.53055668
36.18880844 55.73775864 10.91357899
37.09102631 56.04345322 11.57120991
36.78403854 55.95729446 11.42075253
36.60059738 55.6046257 11.13003635
37.1753006 55.84716034 11.55523586
36.6745224 55.42045212 10.98474216
35.9782486 55.81072998 8.766566277
41.36627197 54.8170929 9.381867409
36.82987976 55.5356102 11.19977283
38.13822174 55.88231277 11.85645008
42.1230011 55.2340889 10.6112566
37.33708572 55.4024353 11.35839367
41.29637909 58.46243286 4.135920525
41.87821579 59.95075226 3.520602465
37.17658997 55.26474762 11.11538792
37.41200638 55.78742981 11.62166691
37.34199905 55.93908691 11.65920353
37.56296539 55.33652115 11.41192532
39.27226639 56.68299866 5.287146568
37.49739838 55.5697403 11.54295254
37.79795456 55.806427 11.76286411
37.6527977 55.72245789 11.67829609
39.88495636 55.26068878 9.769015312
39.66682816 55.98229599 6.217455864
37.54945374 56.02757645 11.73964977
40.20858002 55.04613495 9.614584923
37.95705414 55.87371063 11.82140255
38.35306549 55.84318924 11.87140179
38.45953369 55.68002319 11.84587574
38.22714996 55.98976135 11.83089542
38.60228729 55.84724045 11.86620808
39.21244431 55.2280159 9.843651772
36.34819031 58.49750137 3.640364647
38.26362991 55.22280121 11.54631329
38.54764175 55.54034805 11.79002094
38.05426407 55.63981247 11.7627039
38.20272446 55.61358643 11.7795248
37.60726166 55.13293457 11.22808361
36.84932327 59.02595139 6.436076164
37.70928955 55.23474503 11.39068508
38.19698334 56.18422318 6.331679344
37.91546631 55.27957535 11.49763012
37.94549561 55.08306503 11.30269337
37.78902435 54.87822342 10.46556377
37.73469925 54.91235352 10.67006016
38.00099945 54.9647789 11.07991505
37.39767838 54.98269272 10.34908581
37.29888535 55.12969971 10.96236515
37.02965546 55.09690475 9.945645332
36.93116379 55.12345505 10.19627476
36.91006851 55.43852615 9.350684166
40.82350159 55.04346848 9.334467888
36.48641205 55.43325424 9.296954155
36.50815964 55.29546356 9.728621483
40.76156235 54.7840538 9.5265131
36.19897079 55.49983215 9.286915779
35.88293457 55.6944313 8.981072426
34.08953857 58.49458313 5.451062202
36.13666916 55.63381195 9.006924629
36.11562347 55.75411987 8.836497307
36.62270355 55.58915329 9.154871941
36.75060654 55.62169647 9.259198189
36.81127548 55.9295311 9.403471947
35.71520996 55.76514816 8.903790474
39.85586166 56.14556885 6.056426048
36.05386734 58.31216812 4.243390083
35.86675644 56.02464676 8.565411568
38.85074234 55.91084671 9.468010902
35.75797653 55.9614296 8.549828529
34.84000778 58.3219223 4.744179726
36.05594635 55.90119553 8.733712196
42.42386246 56.38376617 7.592808723
36.19046402 55.42321396 9.816815376
35.87404251 55.5825386 9.935795784
35.84090424 55.64096451 10.24033833
35.92572784 55.55233383 9.63790226
36.65909958 55.22537994 10.21176624
37.01325607 55.19280243 10.80606174
37.37338638 56.15689087 11.60933018
37.49371719 56.09960556 11.65580463
35.40927124 55.83166885 9.58714962
35.46461868 55.80654144 9.275719643
34.69175339 56.47367096 8.222323418
38.1825943 57.2468071 6.310862541
35.17997742 55.99506378 9.726214409
43.13951874 58.09127808 3.638840914
35.52729416 55.80929565 9.001397133
34.83882904 56.21754074 9.340956688
35.06371307 56.05466843 9.239808083
35.02517319 56.13328934 8.777558327
34.78622437 56.28881073 8.871556282
34.90151978 56.24897385 8.591296196
34.69630051 56.34074402 9.147774696
34.79205704 56.36230087 8.404530525
39.34579086 56.15683746 8.89395237
34.55792999 56.51897049 8.49563694
36.04314804 56.03057861 8.7404356
36.13571167 55.95056534 8.804402351
36.19844437 56.25654984 8.873808861
36.34844589 56.03988647 9.020443916
36.96565247 55.88363266 9.445651054
42.90106964 56.60752106 6.795973778
37.23045349 55.81959915 9.578660011
37.17667389 55.89786911 9.52021122
43.33338928 55.75802994 9.870148659
36.92725372 55.59022903 9.377764702
40.79258347 54.89819336 9.386713982
38.53678131 56.19133759 9.039626122
38.5369072 55.96454239 9.429785728
39.01670074 56.27382278 8.703886986
39.10331345 56.07029343 9.137623787
39.18091965 55.8368454 9.524586678
38.61444092 55.76504517 9.695116997
39.5684967 56.19041061 8.771420479
39.63010406 56.06235123 9.037768364
34.33769226 57.27226257 6.811816216
40.24571609 55.53331375 9.650263786
39.4734993 55.03631973 9.740239143
39.7987709 55.40092087 9.778033257
39.44143677 55.34226608 9.858410835
40.48672867 55.31390381 9.625956535
40.32956696 55.23345566 9.661610603
40.39530182 55.0337677 9.537457466
40.0268364 55.05561829 9.67172718
40.35938644 57.56539536 8.284245491
39.89471436 54.69117737 9.946518898
40.095047 54.67832565 9.932133675
39.85964584 54.81142044 9.709057808
37.05247116 58.41875458 5.262150764
40.22369385 54.81254578 9.623848915
40.30383301 54.68402481 9.865115166
40.25823212 54.64214325 10.08689785
41.02690887 55.04299927 11.17375088
40.38562012 54.81070709 9.583426476
44.1778183 58.70920944 4.649706841
40.35165405 54.7442894 9.696328163
40.69714355 54.6679039 9.947957039
40.51043701 54.69283295 9.80224514
40.66590118 54.68851852 10.49843693
40.88186264 54.76576996 10.73560619
41.13249588 54.73150635 10.32331181
44.15738678 58.27891159 4.437226295
41.36122131 54.81578445 10.52336216
41.11723328 54.78828812 10.63608837
35.23099899 57.88946533 5.02735424
41.50610352 55.10536575 10.96391773
41.57891083 55.49357605 11.2291193
40.92332458 55.22490311 11.33549404
38.01102066 54.87532043 10.05228138
39.54517746 56.38843536 8.34288311
40.81237793 55.00333786 11.24189281
41.0881424 55.71783066 11.25311947
40.76462555 55.41654587 11.40267467
39.9379158 55.99517822 11.13763523
35.56002045 58.49176025 7.673138618
37.84354019 57.48603439 9.11414814
37.11724854 58.02089691 8.250210762
37.6384964 57.17680359 9.732792854
39.24787521 56.14529037 5.965334892
40.7489624 56.25679779 10.62662029
39.9078598 56.43794632 10.4775877
41.05325317 56.48575974 7.898085594
41.21283722 57.04323959 9.052002907
38.76838303 57.53429413 8.830033302
41.53990936 56.13467789 10.70500469
33.98790741 57.92732239 6.309466362
42.60730362 55.98167038 10.69879055
38.78346252 56.12073898 6.097481728
42.62874603 56.23966217 10.2420702
41.71390533 55.64210129 11.22667408
41.60250473 54.80123138 10.09047031
41.98523331 55.67113113 11.07359409
42.81654739 55.32230759 10.03060055
42.62928009 55.53842163 10.43238163
42.93201065 55.73000336 10.3078661
42.14658356 55.49128723 10.81857967
42.04317093 54.99354935 10.36458111
41.89525986 55.551754 11.06953335
41.80845261 54.83599091 9.640557289
41.16116333 54.71274185 9.816794395
41.37207413 54.7425766 9.924370766
34.10200882 57.44312668 6.914660454
40.94889069 54.73815536 9.635365486
39.20689774 55.39928818 9.87637043
37.1829071 55.65235901 9.5602808
38.92941666 55.46862793 9.860337257
39.44200516 56.20352173 6.909665108
37.66683197 55.0150528 9.804497719
37.77104568 54.92618179 10.01312542
40.27973557 54.66624451 10.65724087
37.8765564 54.85411835 10.29637623
39.43741989 54.77301407 9.854002953
39.01314926 54.89909363 9.78615284
37.98830795 54.83590698 10.48327351
39.05453491 55.10042572 11.55294323
38.49458313 55.1806488 11.56100178
40.69244766 54.85847473 11.1082983
39.35409546 55.45806122 11.76967716
40.53649139 55.13352585 11.41737652
36.77708435 56.40876007 11.31289387
37.8587532 56.16878891 11.58085155
35.15646362 57.05216599 10.37953663
36.54195023 58.40216827 5.360260963
33.95866394 57.90061188 8.40598774
33.92268753 57.42391968 8.40913105
34.09967804 57.62820435 8.837975502
38.422966 56.3558197 5.82145977
33.85178757 57.81949234 8.190249443
33.80426407 57.67831421 7.940043449
33.90998077 57.73022461 6.809391975
34.38620758 57.31892395 6.637724876
34.55241776 57.16333389 6.693943977
38.98505783 56.08971786 6.114510536
34.42391586 57.54617691 6.184372902
34.7064209 57.15876389 6.543522835
34.73028564 57.06052399 6.716221809
34.72610855 57.41717529 6.059018135
34.8899765 57.26825714 6.249676704
34.70267868 57.73028183 5.597039223
34.95185089 57.49645996 5.82189846
33.94051743 58.11625671 6.14337635
34.51588058 57.78017426 5.73568058
34.49580002 57.91003799 5.584170341
35.16695786 58.49399185 7.744502068
35.39100647 58.19423294 8.264866829
34.26340866 58.12286377 5.615799904
34.02669907 58.22703934 5.858231544
34.62570572 58.1275444 5.171433449
39.08320618 57.90343857 8.00196743
34.61697388 58.55234909 4.746050835
36.04330063 58.32473373 4.084811211
35.06047821 57.89006042 5.082924843
34.95936584 57.79819107 5.295493126
36.09956741 58.33366394 5.556412697
36.67019653 58.13750076 5.866223335
37.17389297 57.98706818 5.955672264
35.98849487 58.14564896 5.92318821
37.28680038 57.71621323 6.503922462
37.51336288 57.68534851 6.40195179
36.81372833 57.92324448 6.201386452
37.60111237 57.89940643 5.935227394
36.92148972 58.22585297 5.618628502
38.16843414 57.76536179 5.96290493
37.66733932 58.09255219 5.688462257
35.05951309 57.69048691 5.441224098
35.02220154 57.17280197 6.468346596
35.02111435 57.04870987 6.695033073
36.11364365 57.92218018 6.340577126
36.90204239 57.21749496 7.529356956
38.13179016 57.35141754 6.213543892
38.17383575 57.32320404 6.433686256
38.2430954 56.88692474 5.863383293
38.53299713 55.96393585 6.52865696
38.52889633 55.95247269 6.594029427
39.33396149 56.06896973 6.910391808
39.0304451 55.75550079 6.845879555
39.72870636 56.1036911 5.967478752
39.63908386 56.03635788 6.08655262
39.57711029 56.13014221 5.929011345
39.40694427 55.98914337 6.195942879
39.55171585 55.97831345 6.197541237
39.49300385 56.23257828 5.769646645
39.54140091 56.55046082 8.017661095
40.46987534 54.96969223 9.478526115
41.74261856 55.48666 8.82722187
41.61061478 55.64100266 8.8988657
40.98564911 54.92901611 9.287590981
41.1725235 54.85775375 9.299544334
42.06776428 54.93162918 10.09652233
43.23113251 55.54636765 9.805901527
43.08604813 55.49217606 9.929053307
43.21776962 55.90335846 10.0934267
41.28536224 57.42893982 8.294425011
39.73609924 58.13665009 7.464842796
44.44494629 56.58921814 8.069043159
44.58982086 56.95865631 7.800885201
44.42631531 56.73616791 8.286602974
44.65807724 57.09180832 6.547553062
44.52766037 57.77501678 5.324816704
44.61536407 57.92079163 5.56348896
44.58967209 57.63438416 5.569846153
44.05133438 58.39393234 4.252381325
43.82689285 58.88621902 4.385205269
44.01806641 58.76239014 4.491877556
39.32231522 59.89342117 4.316163063
41.47793579 59.71497345 4.083489418
37.83172607 60.7030983 2.619599581
38.95264816 60.55234909 2.815257311
39.7985611 60.43803787 2.979848146
37.66825104 60.62652969 2.512044191
37.48390961 60.67856216 2.550656557
37.36164474 60.30484009 2.362447023
37.38391495 60.54310226 2.475495577
37.48137665 60.35367203 2.36221242
38.31177902 59.86156845 2.2362988
37.77934265 60.1626091 2.289624453
37.80491638 59.90029526 2.206553698
37.85169601 60.52043152 2.475653887
38.57924652 59.79751968 2.266133547
43.55043793 55.83009338 7.357563972
38.34288406 60.12485504 2.373976946
38.42275238 59.23801041 2.268941164
37.06079865 60.54255295 2.608676195
37.25597763 60.18090057 2.364596605
37.06102753 60.22545624 2.471284151
36.40890503 59.3379631 2.907908678
36.27157211 59.5794754 2.865750551
38.09167862 58.73365402 3.003920794
37.73045349 58.69933701 3.002318621
37.66147614 58.70385742 3.151509523
36.30737686 58.58581161 3.510697603
36.17695618 58.45433807 4.238934517
36.34600449 58.52222824 4.074856758
36.30059814 58.62062836 4.244990349
36.57445526 58.65171814 4.861042976
38.34540558 57.47297287 6.035933495
38.29644012 57.34823227 6.062098503
38.17636108 56.53760147 5.808554649
42.84031296 56.41017151 7.163083076
38.18932724 56.63946152 5.816056252
38.74167252 56.33224869 5.780499458
38.70978165 56.536026 5.443291664
38.76955795 56.59002304 5.323273659
38.96700668 56.51773071 5.367217064
38.85966492 56.55402374 5.342022896
39.13027954 56.43439102 5.482192039
39.30474472 56.3412323 5.613560677
40.0747261 57.29108429 6.032605171
39.9126358 56.97004318 5.887026787
39.88261032 56.71498489 5.819146156
39.91934967 56.78874588 5.939341545
40.22554779 57.50534058 5.856139183
39.75985336 56.86466599 5.676995277
40.03487015 57.62364197 5.760180473
39.837677 57.28881073 5.848546028
39.82963181 57.4233551 5.785014153
39.83300018 56.64989853 6.870718956
40.10024643 56.75931931 7.326973915
39.78048325 56.54540634 6.705178261
40.19350052 56.89087677 7.163361549
39.89818192 56.80240631 6.906908989
41.08013916 58.52332306 4.080712318
41.35299301 56.98965073 6.953255653
41.75539398 56.81526566 7.177475929
42.66532516 56.54397583 7.229496956
42.42238617 56.63947678 7.251429558
42.54019928 56.69839096 7.099053383
41.02458954 57.10995102 6.770337105
41.81357956 56.9693718 6.889107704
42.82439804 56.75845718 6.740223885
42.20344925 56.91514587 6.836586952
42.41970062 56.92590332 6.710566521
40.59106445 56.64493942 7.652796745
42.054039 55.44313049 8.507594109
42.78650284 56.13901901 7.385569572
42.65846634 56.25873184 7.519175529
42.67523193 55.29454803 8.176728249
42.78137589 55.37857056 7.99541378
43.6560936 55.71804428 7.907378197
42.89332962 56.43128586 7.040379524
42.9080925 56.27991104 7.06863308
43.40425873 56.42710876 5.905617714
43.40261459 56.3215332 6.100718498
43.26469421 56.39161682 5.98656559
43.0014267 56.84226227 5.685652733
42.9645195 56.92972565 5.531041145
40.69365311 57.24127579 6.498209953
42.78010559 57.39454269 5.384526253
42.89597321 57.15893936 5.455014229
42.90354156 57.04795456 5.334620476
42.80576324 57.3107872 5.583174706
39.95169449 56.95412445 6.040862083
41.17643738 57.95663834 5.151881218
41.59009933 58.11169434 4.738087654
40.59978104 57.7221489 5.600068092
40.49984741 57.92447662 5.374112129
40.41439056 57.76966095 5.573914528
41.02163696 58.1817894 4.811890602
41.42137146 58.36069107 4.304224968
41.82281876 58.18434525 4.399022102
42.81493378 57.19378662 5.096781731
42.93241501 57.32598877 4.340483665
43.0325737 57.22270584 4.518136024
42.88228989 57.96434402 3.607863665
43.00158691 57.85474777 3.763192415
42.18416595 58.34464645 3.034541368
42.44841766 58.50689697 3.016745806
41.76213455 58.28266907 3.969983339
41.90099335 58.12449265 3.899194002
41.23848343 58.25539017 3.001042604
39.2882309 58.72506714 2.572734118
39.17302704 58.68812561 2.730378389
40.65507889 58.33356094 4.611454964
37.7731514 58.81202316 3.209635973
38.00366211 58.82881546 3.129288912
37.91567993 58.95054626 3.266316652
38.10390091 58.68225098 4.52393055
38.63685608 57.04056549 5.517502785
38.7650795 57.35573959 5.636301994
39.68889618 56.81495667 5.569722176
39.6246109 56.96606827 5.579358101
40.74448776 58.52653122 4.170325279
40.49762344 58.78889465 3.228123903
40.2526741 58.8812027 3.305396318
40.37844467 58.84986496 3.243739367
40.23382568 58.69099045 3.033025026
39.99781418 58.8957634 3.341094255
40.0311203 58.81278992 3.110436678
39.28501892 58.55904007 4.471135139
39.15145111 58.81458664 3.952960253
43.49284744 56.05817795 6.678601265
39.94327164 58.56367874 2.772937059
34.49532318 57.55123901 6.084881783
41.49326706 58.08190918 3.35575223
42.78023148 58.50299454 3.165616274
34.60119629 56.43198395 9.179234505
34.40946579 59.5315361 4.608160973
42.20472336 57.79210281 3.624762774
44.12162018 57.65668106 4.740933418
39.54175568 58.44645691 4.625214577
38.98898315 59.04990387 3.270711184
36.76755142 60.18157959 2.613648653
38.46568298 55.67268372 7.170870781
39.33512878 59.03072357 3.101588488
37.28641129 58.10967255 5.720345497
43.03190231 56.1661644 6.591109276
