# .PCD v0.7 - Point Cloud Data file format
VERSION 0.7
FIELDS x y z
SIZE 4 4 4
TYPE F F F
COUNT 1 1 1
WIDTH 1242
HEIGHT 1
VIEWPOINT 0 0 0 1 0 0 0
POINTS 1242
DATA ascii
-37.24064255 2.723844528 0.07891625166
-37.24655533 2.722239733 0.06664985418
-37.27011871 2.720901728 0.06695196033
-37.25680923 2.721559286 0.06647393107
-37.28376007 2.723941088 0.06644758582
-37.28288269 2.720476151 0.06522548199
-37.28622437 2.721624851 0.06516033411
-37.27973938 2.719140291 0.06463897228
-37.28899002 2.717382908 0.06517520547
-37.18516922 2.729844093 0.06352120638
-37.18848038 2.73047781 0.06495395303
-37.18407822 2.732969046 0.06314224005
-37.18762207 2.731564522 0.06319907308
-37.23550034 2.724530935 0.06621709466
-37.18960953 2.731671333 0.0642850697
-37.18931198 2.731294394 0.06580010056
-37.23688126 2.719841719 0.06583684683
-37.18621445 2.731409073 0.06311410666
-37.23154831 2.722263575 0.06706383824
-37.23060989 2.722238302 0.06800338626
-37.23367691 2.722067833 0.0654976368
-37.2372818 2.718320847 0.06583577394
-37.23065948 2.721534729 0.0693731308
-37.23820114 2.727163792 0.07304674387
-37.23345566 2.718836308 0.06582871079
-37.235569 2.71903801 0.06589901447
-37.23730087 2.720875263 0.06560388207
-37.2367897 2.723545551 0.06558939815
-37.23738098 2.724737883 0.06692609191
-37.24225235 2.722553968 0.06624957919
-37.23862076 2.72334528 0.06592309475
-37.24076843 2.723847389 0.06700563431
-37.24027634 2.722248554 0.06565245986
-37.23418045 2.725188017 0.06713008881
-37.23012161 2.722891808 0.06866410375
-37.23061371 2.719441414 0.06891170144
-37.23245239 2.722458839 0.06585243344
-37.23889923 2.718577385 0.06567427516
-37.23530579 2.712564468 0.07201305032
-37.23118973 2.718608379 0.0706487596
-37.23364639 2.723900557 0.06586205959
-37.23118591 2.720406771 0.07087996602
-37.18823242 2.732932568 0.07037863135
-37.19353867 2.736671925 0.06346252561
-37.19133759 2.734007835 0.06445649266
-37.19207001 2.735420942 0.06352004409
-37.23195648 2.719400883 0.07219615579
-37.18294907 2.733938456 0.0631121099
-37.18505096 2.735594511 0.06336459517
-37.1920433 2.736984968 0.062756598
-37.19370651 2.738302708 0.06298351288
-37.18259811 2.724619389 0.06216472387
-37.18101501 2.737535954 0.06311479211
-37.18811035 2.737817526 0.06312471628
-37.17735672 2.738336563 0.06179299951
-37.17449188 2.738652706 0.06278130412
-37.17982483 2.737290621 0.06295436621
-37.18380356 2.737228394 0.06321117282
-37.18089294 2.736474276 0.06305193901
-37.17777634 2.735115528 0.06312480569
-37.17981339 2.735461235 0.06307068467
-37.18115997 2.733451128 0.06304809451
-37.17451096 2.735297203 0.06317290664
-37.17845154 2.731216192 0.06331202388
-37.18000412 2.728488922 0.06320017576
-37.17985535 2.732093096 0.06310975552
-37.18177795 2.728796482 0.06342190504
-37.17539215 2.731791496 0.06335484982
-37.17372131 2.731454134 0.06326279044
-37.17340851 2.734108686 0.06327220798
-37.18033981 2.730193138 0.06327176094
-37.17575455 2.733190536 0.06325006485
-37.17904663 2.733725548 0.06315088272
-37.17602921 2.734602928 0.06304162741
-37.17677689 2.730668068 0.06325161457
-37.17540359 2.727809668 0.06306451559
-37.1750412 2.730259418 0.06328067183
-37.17323685 2.728523493 0.06316745281
-37.17545319 2.724038601 0.06284731627
-37.18189621 2.723241091 0.06344047189
-37.18491745 2.728021145 0.06377702951
-37.17975616 2.726873159 0.06277656555
-37.18342972 2.727744341 0.06307610869
-37.18435287 2.72487545 0.06245690584
-37.18210602 2.729994535 0.063539505
-37.18334579 2.726309776 0.06183874607
-37.16986084 2.709853649 0.0717523396
-37.18072128 2.724129438 0.06238523126
-37.23960876 2.720238209 0.06539815664
-37.23697662 2.695153713 0.0673866868
-37.23810577 2.696083546 0.06580090523
-37.23130798 2.718555212 0.06671026349
-37.23462677 2.71739316 0.06607499719
-37.23321152 2.716924191 0.06671369076
-37.23384476 2.713572741 0.07069054246
-37.23479462 2.715583086 0.06740710139
-37.23819351 2.715676308 0.06719323993
-37.23825073 2.717198849 0.06609147787
-37.24044037 2.718776226 0.06544965506
-37.24121475 2.717561007 0.0657967627
-37.24142075 2.716017962 0.06702020764
-37.23602676 2.716984034 0.066172719
-37.18122482 2.725785732 0.06197375059
-37.17147446 2.708248854 0.06617254019
-37.17632675 2.72561264 0.06264922023
-37.17490768 2.725464821 0.06232345104
-37.17761993 2.724278927 0.06291151047
-37.17240143 2.697394371 0.07337331772
-37.17646408 2.697330952 0.07500123978
-37.17462921 2.696952343 0.07380175591
-37.17676163 2.696594954 0.07287722826
-37.17613602 2.696515083 0.07094827294
-37.17473221 2.695908308 0.07250612974
-37.18075562 2.696438074 0.07096731663
-37.17942047 2.690702438 0.06555682421
-37.17709732 2.695659637 0.0685172677
-37.17571259 2.696154118 0.06947797537
-37.17366409 2.69235754 0.06612357497
-37.1830864 2.693165541 0.06524130702
-37.17819977 2.690817595 0.0656273067
-37.17616653 2.692595959 0.066534549
-37.18551254 2.685457945 0.06453606486
-37.18172455 2.690103054 0.06539016962
-37.18060303 2.690775394 0.06513416767
-37.18413925 2.693966866 0.06591662765
-37.24140549 2.69525218 0.06484422088
-37.23989105 2.696053743 0.06552189589
-37.18460464 2.695574522 0.07023203373
-37.18551254 2.694235802 0.0665397048
-37.18624496 2.699322462 0.08103862405
-37.18188477 2.696814299 0.07353302836
-37.18035507 2.696959972 0.07348266244
-37.18055344 2.69574976 0.06843975186
-37.17753983 2.692644596 0.06638249755
-37.18156433 2.696111679 0.06990322471
-37.17973709 2.696636915 0.07191514969
-37.18001938 2.693037271 0.06582963467
-37.18827438 2.690948486 0.06474241614
-37.17704391 2.693642139 0.06689837575
-37.176651 2.698486805 0.0761128068
-37.18105316 2.696948767 0.07527703047
-37.18006897 2.691732407 0.06538295746
-37.18149185 2.692026615 0.0650908649
-37.18343353 2.696444511 0.0734166503
-37.17873383 2.691985607 0.06590130925
-37.18019104 2.689266682 0.0655156076
-37.18289566 2.689337015 0.06551262736
-37.1816597 2.68832159 0.06534260511
-37.17808914 2.697898865 0.07636597753
-37.18745422 2.687168598 0.06512498856
-37.18386078 2.697441816 0.07653826475
-37.17534256 2.664997816 0.06579712033
-37.18596649 2.6767416 0.06477057934
-37.18486404 2.674430609 0.06525030732
-37.17580795 2.689230919 0.06562411785
-37.17749786 2.687120914 0.06496116519
-37.17633057 2.687863588 0.06507375836
-37.17608261 2.686350346 0.06485253572
-37.17865753 2.696892023 0.0731806457
-37.17869568 2.698992491 0.07824975252
-37.1818428 2.698456287 0.07943278551
-37.17723846 2.699471235 0.07739040256
-37.18096924 2.700351 0.08022144437
-37.18549728 2.696839333 0.07676833868
-37.17944717 2.69639039 0.0761783421
-37.17502213 2.700335741 0.07682815194
-37.17663574 2.707179785 0.08124107122
-37.17620087 2.700376749 0.07730177045
-37.17679977 2.710445881 0.08005410433
-37.17408371 2.706562519 0.07673558593
-37.17229462 2.698587656 0.07457044721
-37.17295837 2.699354172 0.07541829348
-37.17552567 2.707573891 0.07737806439
-37.17794418 2.708152771 0.08141061664
-37.17591858 2.709477901 0.07844871283
-37.17743683 2.710714579 0.08155378699
-37.17470551 2.711275578 0.07704213262
-37.17810059 2.709084749 0.08408135176
-37.18258667 2.701228142 0.08090656996
-37.18098831 2.703212738 0.08544072509
-37.1846962 2.702551126 0.08329895139
-37.19086075 2.69422698 0.08388563991
-37.18478394 2.697717667 0.08009153605
-37.18568039 2.700176716 0.082313627
-37.18689346 2.700612068 0.08399373293
-37.23670578 2.712097883 0.070633322
-37.18451691 2.699575663 0.08099505305
-37.18579865 2.701716661 0.08426615596
-37.17799377 2.700106144 0.07899525762
-37.18351746 2.700273991 0.08044826984
-37.1811409 2.701986074 0.08163315058
-37.18289185 2.702992916 0.0820723772
-37.18022919 2.699007273 0.07888221741
-37.18328476 2.69859457 0.08021065593
-37.18095016 2.6976614 0.07833495736
-37.18095016 2.696544647 0.07726848125
-37.19921112 2.692893028 0.08087298274
-37.24165344 2.69497776 0.06838038564
-37.24322128 2.691334724 0.06355047226
-37.25187683 2.695167303 0.06669452786
-37.24180984 2.690206528 0.06375360489
-37.2466507 2.694324017 0.0678576827
-37.25033188 2.701161861 0.06751182675
-37.1885376 2.697983742 0.08521312475
-37.24765015 2.698350191 0.06870830059
-37.186306 2.696134806 0.07506087422
-37.23955917 2.693603754 0.06353324652
-37.23632431 2.694946289 0.06288313866
-37.25087357 2.69409585 0.06574481726
-37.25342178 2.698147297 0.06687369943
-37.24295425 2.686122894 0.06417232752
-37.24299622 2.693143845 0.0639603436
-37.24977493 2.697874546 0.06723433733
-37.24880219 2.695231438 0.06785291433
-37.24489212 2.692636013 0.06568017602
-37.250103 2.699673176 0.06696128845
-37.24714661 2.698485136 0.07014283538
-37.24850845 2.699175835 0.06755119562
-37.2399025 2.695759773 0.0744702518
-37.25001144 2.703791142 0.06954839826
-37.25384521 2.713453054 0.06689995527
-37.24720383 2.699449301 0.06867626309
-37.24878693 2.700388908 0.06783598661
-37.25553131 2.713410378 0.06661885977
-37.25359344 2.704612255 0.06699752808
-37.24190903 2.709618568 0.07254311442
-37.24731827 2.706552744 0.07033333182
-37.23836136 2.695756435 0.07392466068
-37.23694992 2.69664669 0.07472383976
-37.2036438 2.687814713 0.06542789936
-37.20506668 2.686658621 0.0660520196
-37.18758011 2.696421862 0.07828384638
-37.18784332 2.696739674 0.07951593399
-37.18928528 2.695529461 0.07682991028
-37.19047928 2.694946766 0.07600325346
-37.2416954 2.694898605 0.07389396429
-37.24609756 2.693830013 0.07279744744
-37.23909378 2.70045948 0.08607178926
-37.23998642 2.694337606 0.07278311253
-37.23880005 2.697170258 0.07645323873
-37.24052811 2.694108009 0.07039824128
-37.24613571 2.701327085 0.07363891602
-37.2532196 2.710918427 0.06644028425
-37.25400543 2.712397337 0.06671741605
-37.25650024 2.708442926 0.06714710593
-37.25239944 2.705583572 0.06747373939
-37.25455856 2.709718466 0.06610250473
-37.25424194 2.71428442 0.06615263224
-37.25674057 2.711930275 0.06732669473
-37.25683212 2.706979513 0.06690937281
-37.25385284 2.706305981 0.06667289138
-37.25541306 2.70543766 0.06678655744
-37.25403595 2.708037853 0.06634616852
-37.25773239 2.70977354 0.06719508767
-37.26187134 2.711704731 0.06582483649
-37.25764084 2.705749035 0.06676122546
-37.25605011 2.702671528 0.06684428453
-37.25904465 2.707448006 0.06630015373
-37.26464081 2.710445404 0.06632691622
-37.25481415 2.703656912 0.06679987907
-37.25669098 2.704213381 0.06688040495
-37.25325775 2.703242779 0.06720578671
-37.25520325 2.698331833 0.06646245718
-37.26291656 2.704626799 0.06617751718
-37.24771881 2.693595648 0.06526955962
-37.2664032 2.699177265 0.06557440758
-37.25563812 2.690080166 0.06660765409
-37.25659561 2.692681789 0.06599423289
-37.26154327 2.700989246 0.0656543076
-37.24942017 2.691580772 0.0657005012
-37.26332474 2.69414854 0.06591629982
-37.24785614 2.692344904 0.06509196758
-37.24888611 2.692994595 0.06628540158
-37.24650955 2.692528963 0.06481695175
-37.24314499 2.693790674 0.0670517385
-37.24444962 2.693634033 0.0663216114
-37.2434082 2.694350243 0.06858670712
-37.23624802 2.693123817 0.06345027685
-37.24541092 2.69180274 0.06468486786
-37.24593735 2.694124222 0.06630945206
-37.23604202 2.694190741 0.07318344712
-37.23459625 2.694290161 0.07313880324
-37.24479675 2.693813324 0.06756359339
-37.20997238 2.686723948 0.06494283676
-37.24037933 2.690730095 0.0633726716
-37.19883347 2.693157434 0.07297885418
-37.24525452 2.690805674 0.06425082684
-37.24336243 2.690259695 0.06288248301
-37.1924057 2.690280437 0.06834796071
-37.23756409 2.694194317 0.07242098451
-37.23662186 2.689125061 0.06496804953
-37.2383728 2.694661617 0.0690266192
-37.23900604 2.690759182 0.06446832418
-37.23895645 2.695288897 0.0671132803
-37.24111176 2.691050291 0.06279319525
-37.23525238 2.693952322 0.06398379803
-37.24040985 2.692038774 0.06313574314
-37.23403549 2.693616152 0.06475225091
-37.23608017 2.695921183 0.06418311596
-37.23271942 2.692574978 0.06578031182
-37.23155975 2.693118572 0.06642317772
-37.23715973 2.690327644 0.0642991364
-37.23790359 2.696119308 0.06337592006
-37.22988892 2.691092491 0.06749454141
-37.2347374 2.695010185 0.06427639723
-37.23241043 2.694360256 0.06707325578
-37.23304367 2.694707394 0.06546652317
-37.18842316 2.69322753 0.06619635224
-37.23181915 2.693929911 0.07060986757
-37.23910522 2.696635485 0.06430670619
-37.24084091 2.696490765 0.06397938728
-37.23876572 2.695170164 0.06270730495
-37.24122238 2.695354939 0.06290572882
-37.18680573 2.693546772 0.06570744514
-37.2374382 2.696429014 0.06458833814
-37.25361252 2.695463419 0.06434625387
-37.25005722 2.692960978 0.06576499343
-37.24377823 2.69317317 0.06542879343
-37.24146652 2.69324255 0.0635278523
-37.24194717 2.691339493 0.06335115433
-37.20000458 2.69124341 0.06812131405
-37.24104309 2.68747592 0.06362020969
-37.18511581 2.69283247 0.0650011301
-37.18733597 2.692043304 0.06455174088
-37.18725204 2.690198898 0.0645980835
-37.18555832 2.690801859 0.06442290545
-37.19854736 2.687443256 0.06567400694
-37.19134521 2.69001627 0.06749412417
-37.19021225 2.690676928 0.06676733494
-37.18733215 2.688544273 0.06494212151
-37.18629074 2.687247992 0.0646494627
-37.1817894 2.686366558 0.06468364596
-37.20171356 2.68815732 0.06499367952
-37.20770264 2.689320803 0.06507915258
-37.20285797 2.684386253 0.06573587656
-37.20099258 2.686453819 0.06518080831
-37.19940567 2.685933113 0.06541165709
-37.20186234 2.685268641 0.06563848257
-37.20292282 2.68923831 0.06521168351
-37.20910645 2.689313412 0.06575894356
-37.24747086 2.687784195 0.06225198507
-37.20953751 2.69009161 0.06774157286
-37.20985413 2.687886238 0.06571558118
-37.22066116 2.710875988 0.1013371944
-37.23335648 2.71101594 0.1028911173
-37.23335648 2.707837582 0.106169939
-37.22142029 2.710992813 0.1040397286
-37.2299614 2.707094669 0.09967941046
-37.22132874 2.710333109 0.1027529836
-37.23075104 2.71267128 0.1010996401
-37.22560883 2.711467743 0.1021146476
-37.23946381 2.708611965 0.1001805961
-37.23685455 2.715143681 0.09830185771
-37.23205566 2.711760044 0.1021766663
-37.23522949 2.700787544 0.1033862829
-37.24054718 2.702828884 0.08486837149
-37.22898483 2.701985359 0.09638863802
-37.21842575 2.705383778 0.09831121564
-37.22024536 2.704143286 0.09778106213
-37.22994995 2.702003479 0.097615242
-37.22727203 2.702376842 0.0964448154
-37.22766876 2.697652817 0.0925693512
-37.22858047 2.698253155 0.09105217457
-37.23983765 2.700729132 0.08744579554
-37.23888016 2.699910402 0.08744934201
-37.23097992 2.699559689 0.08591550589
-37.22790146 2.6942873 0.08118781447
-37.22756958 2.69525671 0.08257785439
-37.22034836 2.68211484 0.06786188483
-37.22641373 2.693708181 0.08276575804
-37.22512436 2.693323374 0.08212226629
-37.22494888 2.695995808 0.08738982677
-37.22796631 2.698065281 0.08269682527
-37.21657944 2.693453074 0.08317178488
-37.21322632 2.69535327 0.08467376232
-37.21499634 2.694241524 0.08430460095
-37.2277298 2.696783066 0.08277797699
-37.21612167 2.694966793 0.08533507586
-37.21620178 2.694093704 0.08775830269
-37.21691895 2.694334984 0.08645361662
-37.21293259 2.69390893 0.08310496807
-37.22635651 2.693327665 0.08102333546
-37.22783279 2.693351984 0.079677701
-37.20772934 2.692845583 0.08228620887
-37.20670319 2.693237782 0.08306321502
-37.20940399 2.696727753 0.08425486088
-37.20625305 2.694796085 0.08591678739
-37.2089119 2.695213795 0.08780902624
-37.2169838 2.692679644 0.08229830861
-37.21189499 2.706694603 0.1024028659
-37.21852112 2.705933332 0.09983104467
-37.2123909 2.707807064 0.1009754539
-37.22067642 2.710222721 0.1052452326
-37.2188797 2.707742691 0.1024225056
-37.21936417 2.70595932 0.1028240919
-37.22976303 2.703347683 0.09635683894
-37.21879578 2.703937531 0.09732878208
-37.21681976 2.707757235 0.09810951352
-37.22004318 2.709106207 0.102886945
-37.21824646 2.706580639 0.09902250767
-37.21588135 2.707411528 0.09886807203
-37.22900772 2.696819544 0.08074855804
-37.20752335 2.695727825 0.0889248848
-37.21486282 2.71549511 0.1002959609
-37.21165848 2.708926201 0.09921917319
-37.23181915 2.713629007 0.1005209088
-37.2409668 2.709506989 0.09908753633
-37.24137878 2.708438396 0.09845212102
-37.22082901 2.712073565 0.1010178626
-37.21279144 2.709611416 0.09777927399
-37.21011734 2.709023476 0.09916105866
-37.22171402 2.711104155 0.09800067544
-37.21631622 2.710502386 0.09599074721
-37.21544647 2.708352089 0.0979115963
-37.21704102 2.706394196 0.09879031777
-37.2097702 2.695752382 0.08286955953
-37.21252823 2.69071269 0.07234293222
-37.21139526 2.687383413 0.06830790639
-37.18833923 2.698269367 0.08831530809
-37.21459961 2.707623959 0.09890398383
-37.22134781 2.702549458 0.09843736887
-37.21999359 2.702782631 0.09726679325
-37.2141037 2.708665609 0.09801051021
-37.21863556 2.708895683 0.09643182158
-37.22649384 2.697850227 0.08484920859
-37.22588348 2.697002411 0.08591905236
-37.22638702 2.696047783 0.08412116766
-37.22850037 2.697469473 0.08173918724
-37.22117615 2.713925123 0.1020466983
-37.22515488 2.695739985 0.08562225103
-37.22900009 2.694353342 0.08005794883
-37.22809982 2.696075916 0.08138111234
-37.22311783 2.690544367 0.07113862038
-37.21896362 2.69122982 0.07379344106
-37.23068619 2.692969561 0.07797047496
-37.23186111 2.694246769 0.07581374049
-37.23220062 2.69918251 0.08053487539
-37.23991776 2.702703476 0.07838618755
-37.23727036 2.698339939 0.08646908402
-37.23636627 2.69679141 0.08949637413
-37.24419022 2.697363615 0.07900348306
-37.23730469 2.699479103 0.08301287889
-37.23617554 2.699056149 0.08294641972
-37.23683167 2.699023724 0.08188325167
-37.23094177 2.682176828 0.06762093306
-37.23918915 2.698818922 0.08897617459
-37.23160172 2.69648242 0.07571992278
-37.23933029 2.69755435 0.07773599029
-37.24169159 2.696799517 0.07848927379
-37.24271393 2.707785606 0.09786310792
-37.24198914 2.711205006 0.09797480702
-37.24431229 2.711882591 0.0958314538
-37.22701645 2.709759951 0.1019002497
-37.22761917 2.711050749 0.1010830104
-37.22483063 2.71565485 0.1010023057
-37.22619629 2.715241432 0.1011348963
-37.22793579 2.712692738 0.1015099287
-37.22900009 2.713678598 0.1011263728
-37.22773743 2.709857941 0.1040482521
-37.22673416 2.712696075 0.1018360555
-37.23410034 2.712918758 0.1004095972
-37.23205948 2.716263533 0.09952607751
-37.23301315 2.713727951 0.0999892056
-37.22983932 2.704991102 0.09925127029
-37.24524307 2.710312366 0.09414958954
-37.24466324 2.712035179 0.09499529004
-37.24463654 2.708452702 0.09500274062
-37.24019623 2.699350357 0.07834672928
-37.22357559 2.712878466 0.1022210419
-37.22729111 2.713874817 0.1012767553
-37.22948456 2.715108395 0.1009505391
-37.22796631 2.715219259 0.1011583209
-37.23065186 2.714274406 0.1007176638
-37.21883392 2.712337255 0.09673944116
-37.22005081 2.712937832 0.09797200561
-37.22154999 2.71203804 0.09683910012
-37.22613525 2.713950634 0.1017106771
-37.21949387 2.713116407 0.09973612428
-37.21574402 2.714981556 0.1013750136
-37.21327209 2.708389521 0.09921309352
-37.21829605 2.710749626 0.09687331319
-37.21730804 2.713402271 0.09688445926
-37.21709442 2.713818789 0.09870761633
-37.21792984 2.715395451 0.1023361385
-37.22153854 2.71629715 0.1015982628
-37.22096252 2.71062088 0.106990397
-37.22494125 2.714442968 0.1017099917
-37.23695374 2.713765383 0.09858980775
-37.24600601 2.713030338 0.09390467405
-37.23425293 2.713827848 0.0994643569
-37.23611069 2.698940277 0.07982933521
-37.23748779 2.698678493 0.08024302125
-37.23521805 2.698850393 0.07894966006
-37.23607254 2.698966026 0.08090999722
-37.24108887 2.695765972 0.07496613264
-37.23510742 2.699117184 0.08201745152
-37.23829269 2.700158596 0.07956215739
-37.23466492 2.698966026 0.0858271718
-37.23345947 2.699609756 0.08283442259
-37.23680115 2.698606491 0.078597188
-37.23774338 2.697921515 0.07745602727
-37.23738098 2.697280407 0.07621920109
-37.2358551 2.69798851 0.07729440928
-37.23384094 2.698281288 0.07808449864
-37.23365784 2.698951483 0.07968065143
-37.23492432 2.699147224 0.08041501045
-37.20898819 2.693039656 0.08174866438
-37.23319626 2.69955349 0.08475536108
-37.22444534 2.693542957 0.07931390405
-37.23103333 2.698215961 0.08016121387
-37.22706985 2.693387032 0.0783008635
-37.23065186 2.699355125 0.08179661632
-37.23167038 2.700062275 0.08346664906
-37.23229599 2.699863434 0.08188161254
-37.23041153 2.696666241 0.0799896121
-37.20999527 2.710517883 0.09705987573
-37.21035767 2.696875334 0.08774790168
-37.23810959 2.698508024 0.07856413722
-37.24110413 2.703772545 0.09054082632
-37.23760605 2.699786425 0.09782522917
-37.24404526 2.696515799 0.07596990466
-37.23303604 2.696167946 0.07477003336
-37.23898697 2.693819046 0.07172879577
-37.24009705 2.696760893 0.07691368461
-37.22306824 2.662377357 0.06605169177
-37.23232269 2.697540283 0.07757359743
-37.23847198 2.685451984 0.06641188264
-37.23465729 2.696918249 0.07381474972
-37.23177719 2.694065571 0.07340764999
-37.23019791 2.693303347 0.07299119234
-37.22969818 2.693416119 0.07534366846
-37.21582031 2.690598965 0.07268631458
-37.22205734 2.692481518 0.07705098391
-37.2146225 2.692712784 0.08021557331
-37.21825027 2.692708015 0.08149558306
-37.22881317 2.695620298 0.08013650775
-37.21703339 2.69234705 0.07543623447
-37.23498154 2.693938255 0.0696541965
-37.23470306 2.695247412 0.07396364212
-37.23366165 2.697786093 0.0757535696
-37.23825073 2.694905996 0.07260406017
-37.23992157 2.696465969 0.07561647892
-37.24145889 2.695958853 0.07628810406
-37.23867416 2.696911812 0.07516807318
-37.23573303 2.697162151 0.07570287585
-37.23419189 2.688140869 0.0667527616
-37.24310303 2.695776701 0.0750053823
-37.24226761 2.693362474 0.07175934315
-37.24491882 2.692823887 0.07215803862
-37.24714279 2.692997694 0.0712672472
-37.24394989 2.693214417 0.07018709183
-37.2466011 2.69116044 0.06506103277
-37.24788666 2.690169573 0.06472232938
-37.25276566 2.692177773 0.06578180194
-37.25107193 2.690002441 0.06416723132
-37.25164032 2.69146204 0.0650805831
-37.2492218 2.690236092 0.06517982483
-37.24600601 2.686593294 0.063131392
-37.24583817 2.688524246 0.06242954731
-37.24526978 2.689832687 0.06309124827
-37.23649216 2.69418478 0.06914129853
-37.23883057 2.693568707 0.07040601969
-37.2374382 2.693320751 0.07010576129
-37.23620605 2.693263292 0.07040554285
-37.23959732 2.687208652 0.06409695745
-37.209198 2.685429335 0.06456077099
-37.19779968 2.688734293 0.06613790989
-37.24059677 2.689395905 0.06498768926
-37.23510361 2.6937325 0.07155609131
-37.23547363 2.687218189 0.06649199128
-37.23723602 2.693386078 0.07147753239
-37.2357254 2.688744068 0.06620174646
-37.20637894 2.685613632 0.06583970785
-37.23200989 2.689213753 0.06705880165
-37.21047211 2.685498238 0.06540209055
-37.21290588 2.686492205 0.06817024946
-37.24048996 2.685533762 0.06495323777
-37.23416138 2.686406851 0.0666461885
-37.21024323 2.683125973 0.06397381425
-37.25483322 2.688649654 0.06650158763
-37.25870132 2.683670521 0.06562116742
-37.24137878 2.686144114 0.06399449706
-37.26098251 2.68849206 0.06667837501
-37.22734833 2.697638035 0.09087526798
-37.24996567 2.689374208 0.06320270896
-37.25314713 2.681813717 0.06393480301
-37.24407959 2.686285496 0.06372883916
-37.24389648 2.685533047 0.06522113085
-37.23262405 2.688043118 0.06701722741
-37.20715332 2.683001518 0.06449747086
-37.23552322 2.685602188 0.06707718968
-37.23087311 2.683431149 0.06745618582
-37.23217392 2.686707497 0.06688925624
-37.23317719 2.686946154 0.06692793965
-37.24238968 2.685602188 0.06597205997
-37.24528122 2.685055017 0.06425023079
-37.23326492 2.694372892 0.0739377439
-37.2413826 2.684149265 0.06584817171
-37.24459076 2.684043407 0.06498104334
-37.23524857 2.683786392 0.06702923775
-37.24024963 2.678473949 0.06659144163
-37.22927856 2.684063911 0.0675778687
-37.23189163 2.681510448 0.0674726069
-37.23295975 2.682380676 0.06699219346
-37.23178482 2.682640076 0.06718602777
-37.23192978 2.680012226 0.06780385971
-37.23331833 2.680998802 0.0674354434
-37.23360062 2.679340124 0.0675201118
-37.23447037 2.68219161 0.06693321466
-37.23385239 2.683375359 0.06676971912
-37.23691559 2.677693844 0.06731569767
-37.23114777 2.685363054 0.06698569655
-37.23013687 2.6789639 0.06826335192
-37.21691513 2.68828392 0.07037118077
-37.23334122 2.694326162 0.07524695992
-37.22951126 2.693219185 0.07926559448
-37.23186493 2.694601059 0.07483920455
-37.21299744 2.692656517 0.07753306627
-37.22673035 2.69306469 0.07515758276
-37.22533417 2.68856287 0.06678074598
-37.21652603 2.683748722 0.06688395143
-37.22204971 2.682707787 0.06763678789
-37.21140671 2.68611908 0.06767210364
-37.21220779 2.685254097 0.06699180603
-37.21042252 2.692223549 0.07500749826
-37.21027374 2.68660903 0.06625029445
-37.21059418 2.6865201 0.06742268801
-37.20328522 2.69304657 0.08003053069
-37.21529388 2.683644533 0.06732025743
-37.21962738 2.691784859 0.09009882808
-37.22785568 2.687439919 0.06501120329
-37.23950958 2.68220973 0.06705799699
-37.22095108 2.683600664 0.06780552864
-37.21232605 2.683309555 0.06545761228
-37.21582031 2.685055733 0.06745246053
-37.21346283 2.682831764 0.06608197093
-37.21469116 2.682200193 0.06591165066
-37.20864487 2.6833992 0.06405439973
-37.21902084 2.680607557 0.06745171547
-37.21078491 2.683941841 0.06495803595
-37.19347382 2.679378986 0.06440132856
-37.22705078 2.686856985 0.06500339508
-37.2232666 2.682297707 0.06745779514
-37.22166061 2.692727089 0.08439022303
-37.21091843 2.685726643 0.0666834712
-37.20751953 2.684687138 0.06488889456
-37.20630646 2.683821201 0.06605300307
-37.20350647 2.685792685 0.06607362628
-37.20393372 2.68447113 0.06616038084
-37.19524765 2.684049129 0.06701648235
-37.20180893 2.683715582 0.06483176351
-37.19684601 2.684228182 0.06657832861
-37.19805527 2.684912682 0.06582036614
-37.2035675 2.692739487 0.07746699452
-37.20518494 2.692756176 0.07843947411
-37.20183945 2.694610119 0.08413079381
-37.20364761 2.683696985 0.06558185816
-37.19769287 2.68329525 0.06539934874
-37.20042801 2.693119526 0.07917279005
-37.20116806 2.692990541 0.08056664467
-37.20861053 2.694211721 0.08348143101
-37.20650101 2.692641258 0.07988369465
-37.19143677 2.694477558 0.07694107294
-37.19899368 2.693404913 0.07913947105
-37.19900131 2.693784237 0.07750931382
-37.1977272 2.694017649 0.07850345969
-37.19345093 2.69097352 0.06952142715
-37.20519638 2.693805456 0.08334970474
-37.20648956 2.692710876 0.08157444
-37.20489502 2.694624662 0.0846414268
-37.2092247 2.69625473 0.08925116062
-37.20825195 2.696325064 0.0845810771
-37.20678329 2.694313526 0.08435356617
-37.20511627 2.692899704 0.08073550463
-37.2040596 2.693529844 0.08201500773
-37.20785141 2.695292473 0.08413988352
-37.20810318 2.682040215 0.06384658813
-37.20323944 2.695286274 0.0848415792
-37.20517731 2.69455862 0.08763220906
-37.20584869 2.695406199 0.08881741762
-37.21505737 2.69465661 0.08897554874
-37.20940018 2.696449757 0.0859849453
-37.20143127 2.696267128 0.08535039425
-37.21524811 2.695118904 0.08697444201
-37.20352173 2.694201469 0.08355921507
-37.20594025 2.70882225 0.09687367082
-37.19426346 2.689456701 0.06798899174
-37.18865204 2.704957724 0.0987842977
-37.18948364 2.696780443 0.08435240388
-37.18939209 2.697348595 0.08262106776
-37.18621445 2.700568914 0.08559986949
-37.19001389 2.694962502 0.08520054817
-37.17691803 2.702227354 0.09363460541
-37.1870575 2.699254036 0.08826097846
-37.19092941 2.69642067 0.08837813139
-37.1901741 2.696040154 0.08687651157
-37.19121933 2.695015907 0.08788710833
-37.19144058 2.692862749 0.08376047015
-37.1924057 2.691559792 0.08358582854
-37.19090271 2.693479776 0.08487772942
-37.19150162 2.694114685 0.08234617114
-37.19305038 2.691641808 0.08201813698
-37.1919136 2.692492008 0.08204936981
-37.17774963 2.682684898 0.06446364522
-37.17769623 2.683977127 0.06446927786
-37.18675613 2.699265718 0.08274319768
-37.18947983 2.696071863 0.07997003198
-37.20163345 2.696490288 0.08734726906
-37.20029068 2.69552803 0.08658418059
-37.19897842 2.677446842 0.0648368597
-37.20053101 2.68478632 0.06498199701
-37.19434738 2.68288517 0.06683519483
-37.19309998 2.683692217 0.06654179096
-37.1928215 2.682379246 0.06586116552
-37.1904335 2.679077864 0.06468138099
-37.19075394 2.687073708 0.06669819355
-37.19081497 2.695865631 0.08303552866
-37.195858 2.685594559 0.06693464518
-37.19168854 2.693710327 0.08037135005
-37.19451523 2.686522961 0.06692102551
-37.19264221 2.693917751 0.07720965147
-37.19794464 2.686267853 0.06619858742
-37.18790817 2.682248831 0.06461110711
-37.18863297 2.684959412 0.06513988972
-37.1897316 2.686431408 0.06602138281
-37.1917572 2.684119701 0.06607916951
-37.19113922 2.685695171 0.06635734439
-37.19055176 2.694874763 0.07934305072
-37.18022919 2.685612679 0.06457304955
-37.18896866 2.685925245 0.06540355086
-37.18938446 2.687879324 0.06611540914
-37.19278717 2.685102463 0.06694665551
-37.19433212 2.69383502 0.07781451941
-37.19681931 2.686435699 0.06677085161
-37.1991272 2.684171438 0.06476715207
-37.20749664 2.686169863 0.06495708227
-37.19564438 2.694601059 0.07761350274
-37.19317627 2.68641305 0.06708478928
-37.1962738 2.688982964 0.06698510051
-37.1919632 2.686374664 0.06706887484
-37.1999855 2.687618732 0.065094769
-37.20445633 2.689484596 0.06563007832
-37.18314362 2.687746286 0.06492626667
-37.17888641 2.686388254 0.06472331285
-37.18790436 2.685984135 0.06512540579
-37.18863297 2.697492599 0.08097231388
-37.19042206 2.69494915 0.0776977241
-37.18688583 2.699919462 0.0836879015
-37.18577957 2.701084852 0.08328291774
-37.18650055 2.699661255 0.08692187071
-37.18543625 2.700435162 0.08696937561
-37.18782043 2.699043989 0.08379623294
-37.1967392 2.694766283 0.07764655352
-37.19152832 2.694129944 0.07842472196
-37.19286728 2.693381548 0.07897466421
-37.1893692 2.69558382 0.07841575146
-37.20126724 2.693052769 0.07582178712
-37.18728256 2.698162317 0.08246994019
-37.20637131 2.687224865 0.06536015868
-37.19207382 2.68748951 0.06738448143
-37.19029617 2.696732283 0.08142235875
-37.1874733 2.699527502 0.08504921198
-37.18502426 2.703185558 0.09319826961
-37.17636871 2.703888416 0.09830340743
-37.17740631 2.703575134 0.09728872776
-37.17908478 2.703576565 0.09690755606
-37.18503571 2.703351974 0.09514933825
-37.18356705 2.70217371 0.08890199661
-37.17845917 2.70300436 0.09356746078
-37.17757797 2.710637331 0.0975035131
-37.18388367 2.704419851 0.09538179636
-37.17937851 2.703732252 0.09491789341
-37.18590546 2.702623367 0.09287783504
-37.18653107 2.700184107 0.08949717879
-37.18515778 2.703964233 0.09200039506
-37.18834686 2.706779003 0.09868440032
-37.18341446 2.704106808 0.091719836
-37.18447495 2.703675747 0.09101584554
-37.18553162 2.703790665 0.09098887444
-37.18470001 2.701314688 0.08976578712
-37.18553162 2.70005703 0.08828824759
-37.19143295 2.709933281 0.09897220135
-37.18663406 2.702054977 0.09004682302
-37.18911743 2.707551479 0.1016854942
-37.19126129 2.711273909 0.1009324789
-37.19179535 2.71030283 0.100353092
-37.19895935 2.706422567 0.09899109602
-37.20050049 2.707275391 0.09846138954
-37.20889664 2.708031178 0.09813591838
-37.20472717 2.707607985 0.09768804908
-37.19776917 2.708464384 0.09955766797
-37.20761108 2.706885815 0.09738785028
-37.19198227 2.704157352 0.1050655246
-37.20698929 2.710201263 0.0963525176
-37.207901 2.708402157 0.09647092223
-37.19010162 2.708953381 0.1007027924
-37.19034576 2.709924459 0.09791392088
-37.18722153 2.707368612 0.09794694185
-37.19684982 2.708919287 0.1004603803
-37.2085762 2.710319042 0.09655272961
-37.20183563 2.708244085 0.09834942222
-37.21069336 2.709359169 0.09787124395
-37.20633316 2.711446762 0.0965141654
-37.19813156 2.710189342 0.09978586435
-37.18818283 2.713892937 0.1022619307
-37.19050598 2.709333658 0.09875714779
-37.18497467 2.702933311 0.0901786387
-37.17831421 2.71112752 0.101747185
-37.17469025 2.704344273 0.09765073657
-37.18143845 2.712500095 0.1016276777
-37.17961121 2.711565733 0.1036299765
-37.18985748 2.714309216 0.1023146212
-37.19247055 2.710925102 0.10153386
-37.19138718 2.708981514 0.1025848389
-37.18273544 2.713225842 0.1016459465
-37.19367599 2.713040113 0.1026119292
-37.20171356 2.709589958 0.09850800037
-37.1996994 2.711804628 0.09948599339
-37.19847107 2.711507559 0.100531131
-37.19764328 2.711382151 0.1027445197
-37.19232559 2.709589958 0.1014005244
-37.19724274 2.713185072 0.1022810042
-37.19172668 2.709224463 0.1000648439
-37.19702911 2.702997684 0.1013913751
-37.17893982 2.711245298 0.1053002477
-37.18074036 2.711740971 0.1027586162
-37.17699051 2.710579395 0.1029037833
-37.17966461 2.704005718 0.09866708517
-37.17790222 2.703761339 0.098500669
-37.17674637 2.718855858 0.1009077728
-37.18302917 2.706480503 0.1007393301
-37.1827507 2.706820011 0.1022814512
-37.18198776 2.705872536 0.09970697761
-37.17562103 2.709652185 0.105491817
-37.17759705 2.711001158 0.1059372127
-37.17650986 2.734122276 0.0988612175
-37.17474365 2.733778477 0.09848496318
-37.19113159 2.703461409 0.1004532576
-37.1885376 2.705640078 0.1020363867
-37.17721558 2.716701508 0.1013402641
-37.17768478 2.70283246 0.09553465247
-37.17607117 2.703141451 0.09685766697
-37.18088913 2.705045223 0.09872096777
-37.18064117 2.704368114 0.09604713321
-37.17435074 2.703471661 0.09609538317
-37.18397522 2.703615904 0.09358403087
-37.18830872 2.700637102 0.09042328596
-37.18822479 2.700644493 0.09748256207
-37.17842865 2.704116821 0.09991762042
-37.19014359 2.697528362 0.09032166004
-37.1789093 2.70468998 0.101380229
-37.19880295 2.704675198 0.09967300296
-37.19234085 2.707234383 0.1048656106
-37.18938446 2.704606533 0.1022493541
-37.20674896 2.70548439 0.09819123149
-37.20793915 2.705958128 0.1007793546
-37.20755386 2.70614934 0.09889030457
-37.19047165 2.708092213 0.1059513688
-37.20802307 2.704683542 0.09795150161
-37.20212936 2.706748486 0.09876292944
-37.20665741 2.696777821 0.09124615788
-37.20788956 2.696427822 0.09024366736
-37.20638657 2.696053982 0.08997252584
-37.20534134 2.69613409 0.09107422829
-37.19706345 2.706433535 0.1004194021
-37.20942688 2.707870483 0.1020802557
-37.20937347 2.704642057 0.1016439795
-37.20270157 2.704889536 0.09850928187
-37.20917892 2.70431757 0.0982798636
-37.20856094 2.704787493 0.09967964888
-37.2085762 2.707367897 0.1011191607
-37.20519638 2.705997705 0.09827148914
-37.19753265 2.704136372 0.1008082032
-37.19270325 2.7024827 0.1052867174
-37.19047165 2.708292723 0.1038973331
-37.19399643 2.701147795 0.1011866629
-37.2101059 2.703061581 0.100102365
-37.20069504 2.705309629 0.0991076827
-37.19020081 2.699693203 0.09814578295
-37.21242142 2.700852871 0.09698036313
-37.19169617 2.7020998 0.09798333049
-37.18819427 2.699073315 0.08945009112
-37.18907166 2.698373556 0.09100970626
-37.19054794 2.703450918 0.09690245986
-37.19003296 2.704004765 0.09832799435
-37.18178558 2.705913067 0.1039617658
-37.18948746 2.707751989 0.1032241285
-37.18994904 2.703728199 0.09995776415
-37.17779922 2.704898357 0.1020192206
-37.18736267 2.699739695 0.09256717563
-37.18677139 2.702696562 0.09645140171
-37.17599487 2.704859495 0.1006450057
-37.1772995 2.704453468 0.1009740531
-37.18260193 2.705625057 0.09849002957
-37.19150162 2.708278179 0.1058800817
-37.17739868 2.705904961 0.1037076414
-37.177742 2.706771851 0.1052845418
-37.18072128 2.70451808 0.1026521623
-37.17575455 2.706803799 0.1048228741
-37.18922806 2.705849648 0.104978621
-37.17697144 2.713531256 0.1007419527
-37.18887329 2.705199242 0.1034246087
-37.19181442 2.70395565 0.1064412594
-37.18930435 2.70751071 0.1047257185
-37.1905365 2.708057642 0.1075282991
-37.19049072 2.707965612 0.1089855433
-37.18955612 2.707714081 0.1080221832
-37.1891861 2.705904484 0.1081632376
-37.18961716 2.705627441 0.1065320075
-37.1926918 2.702454567 0.103554368
-37.1921196 2.703528643 0.1019028723
-37.19151306 2.702301979 0.09990021586
-37.19607925 2.696392059 0.09508645535
-37.19328308 2.701219559 0.09928420186
-37.19309235 2.700475216 0.09764963388
-37.1910553 2.703539371 0.09897658229
-37.18912506 2.704741716 0.1008372903
-37.17873764 2.705007553 0.1028907597
-37.19775391 2.701419353 0.09941390157
-37.20058441 2.697428226 0.09334844351
-37.21114731 2.703453302 0.09833282232
-37.20441055 2.703038454 0.09898349643
-37.21112823 2.70445013 0.101308465
-37.20395279 2.703935146 0.09932497144
-37.20904922 2.703197002 0.09627878666
-37.21002197 2.704205036 0.09709951282
-37.21119308 2.701365709 0.0962357223
-37.2100029 2.700240612 0.09767895937
-37.20687866 2.700790405 0.09674954414
-37.19923019 2.699598551 0.0975407362
-37.19510651 2.700240612 0.09800627828
-37.2031517 2.700470448 0.09617128968
-37.19654083 2.700446367 0.09904170036
-37.20840073 2.700920582 0.0971788466
-37.2054863 2.704363346 0.09944808483
-37.20141983 2.703459501 0.09907212853
-37.19557571 2.701704502 0.1009836793
-37.21205521 2.70544219 0.1022446454
-37.21320343 2.703891039 0.09989964962
-37.21934128 2.707620144 0.1040826142
-37.212883 2.703311443 0.09844315052
-37.22075272 2.709765434 0.1038390696
-37.21224213 2.702512741 0.09662240744
-37.22196198 2.701873064 0.09982085228
-37.21678162 2.701350451 0.09795093536
-37.20959091 2.696790457 0.09074091911
-37.21904755 2.705136299 0.1012121737
-37.21595383 2.703505993 0.0977216959
-37.21501923 2.701949596 0.09775876999
-37.22071457 2.705185652 0.1001255214
-37.21302795 2.704214573 0.101863116
-37.22875214 2.706591129 0.09904873371
-37.22628403 2.701802254 0.09813162684
-37.22906494 2.706664085 0.103332907
-37.22589111 2.70358181 0.09817075729
-37.23233032 2.699071169 0.09939044714
-37.22303772 2.700872183 0.1002909541
-37.2309227 2.705657244 0.1035859585
-37.22834778 2.70908165 0.1051007509
-37.23342133 2.708532572 0.1047188044
-37.23488998 2.707962275 0.1049206257
-37.22265625 2.704491377 0.1040854156
-37.2346344 2.699949026 0.101814121
-37.2265625 2.708147049 0.1060209274
-37.23152542 2.70482111 0.1004032195
-37.23646164 2.702548504 0.09980195761
-37.22520447 2.703918457 0.1059214175
-37.22396088 2.703314066 0.1042951047
-37.22223282 2.708630085 0.1086969972
-37.22498322 2.704414606 0.1015139222
-37.22377014 2.704012394 0.1008399725
-37.2359581 2.698576927 0.09710198641
-37.22784042 2.707521439 0.1049443185
-37.23361588 2.70422411 0.1045027971
-37.22960281 2.706222296 0.1048683524
-37.23521042 2.707178593 0.1035567224
-37.23360443 2.698074341 0.0968427062
-37.22457123 2.701641321 0.09919959307
-37.22340775 2.702219725 0.09991067648
-37.22389603 2.699765205 0.09986391664
-37.22283173 2.70339179 0.09999415278
-37.22012329 2.701073647 0.09808129072
-37.22629547 2.704138279 0.09927964211
-37.23159409 2.702756643 0.1007471383
-37.22177505 2.705618858 0.1057822108
-37.21782684 2.700227022 0.1017388403
-37.21848679 2.702112913 0.09746205807
-37.21351624 2.70589447 0.1022403836
-37.23522568 2.706412792 0.1060324907
-37.22055054 2.705323458 0.1073774099
-37.2212944 2.706522226 0.1042004228
-37.2231636 2.707321644 0.1089189053
-37.22278976 2.704344749 0.1072635055
-37.22518921 2.706110001 0.1079798341
-37.22492981 2.704586506 0.1086908877
-37.22256088 2.705525875 0.1079066694
-37.23247528 2.701313734 0.1026986837
-37.21913147 2.707431793 0.1077238917
-37.21730423 2.69764781 0.1033908725
-37.22320938 2.703575373 0.1054367423
-37.22663879 2.706320286 0.1050137877
-37.22707748 2.705150843 0.1052981019
-37.22640991 2.705466032 0.1071842313
-37.23721313 2.700358629 0.09866255522
-37.21984863 2.706743479 0.1058383584
-37.22063828 2.700682402 0.1003875732
-37.21649933 2.700251102 0.1027573645
-37.22075272 2.699313879 0.1000195444
-37.22325516 2.698346615 0.09982797503
-37.22894287 2.697533131 0.09628993273
-37.22406006 2.697379589 0.09811371565
-37.22836304 2.698820353 0.0979475975
-37.22829056 2.706414223 0.1052151918
-37.22784424 2.70601511 0.104333967
-37.23131561 2.704009771 0.1032016277
-37.23688889 2.697130919 0.09297654033
-37.23784637 2.697663307 0.09375244379
-37.23809052 2.699312449 0.09636306763
-37.23648834 2.699240208 0.09878155589
-37.23381042 2.705461025 0.1049770713
-37.23253632 2.705945969 0.1055595577
-37.23184204 2.702690363 0.1021417081
-37.23227692 2.702279806 0.1034893095
-37.2328186 2.703240156 0.1043934822
-37.23620987 2.700833082 0.1017512679
-37.23476791 2.699501514 0.1000208855
-37.23554993 2.702416182 0.1031934023
-37.23435974 2.702577829 0.1039715707
-37.23134613 2.699625254 0.1004599035
-37.23303223 2.699664831 0.1009178162
-37.23416901 2.698830605 0.0982798636
-37.22696304 2.697443962 0.09730643034
-37.22304916 2.705754042 0.1088107228
-37.2183876 2.700068474 0.1028130949
-37.22220612 2.692978859 0.1007171571
-37.21715546 2.693649769 0.09941208363
-37.21868515 2.69711566 0.1026570201
-37.22128296 2.695055962 0.1008261442
-37.21737289 2.691884041 0.09753575921
-37.21815109 2.692756414 0.09840208292
-37.21644211 2.693102121 0.09831690788
-37.21652985 2.691793203 0.09610998631
-37.21495438 2.697099209 0.09696859121
-37.22129059 2.696570396 0.1001278162
-37.21960068 2.698266268 0.1017644703
-37.22134399 2.698181152 0.09937053919
-37.21782684 2.696065664 0.1030319631
-37.22029114 2.69075489 0.09642639756
-37.21755219 2.694814205 0.1025476158
-37.21852493 2.698929787 0.1029469967
-37.21696854 2.699513912 0.1038883626
-37.22422028 2.706239223 0.1084238589
-37.23273468 2.705130339 0.1047780216
-37.21665955 2.696900368 0.101208806
-37.19494629 2.701593399 0.1067391038
-37.21484375 2.698006392 0.1026777923
-37.21536636 2.699342012 0.1033624709
-37.21652222 2.699928522 0.1008930206
-37.1955719 2.701040983 0.1046518385
-37.19361115 2.704371929 0.1074595153
-37.19042206 2.70491457 0.107454747
-37.19049072 2.704918146 0.1094214916
-37.19024277 2.704047918 0.1039569974
-37.19475555 2.70114255 0.1028160453
-37.21339798 2.700286865 0.09716516733
-37.21541977 2.699689627 0.09988325834
-37.21125412 2.699966669 0.09765058756
-37.20869446 2.69925046 0.09683489799
-37.21567535 2.696717262 0.1034041345
-37.20892334 2.697779179 0.0954285264
-37.21717453 2.695899725 0.09980306029
-37.21427917 2.698756456 0.09918040037
-37.21350861 2.696396351 0.09722593427
-37.21553421 2.695831299 0.0982671082
-37.21429443 2.69484663 0.0971737802
-37.21553421 2.694217205 0.09880968928
-37.21475601 2.693557739 0.09766879678
-37.21544266 2.692501783 0.09525051713
-37.21271896 2.69464922 0.09673321247
-37.22404099 2.694309711 0.09724840522
-37.21377563 2.697396517 0.09654599428
-37.19282532 2.693492413 0.08897396922
-37.21303177 2.696013212 0.09578377008
-37.20432281 2.697652102 0.09607946873
-37.20556259 2.698528767 0.09705489874
-37.2071228 2.698526382 0.09626826644
-37.20705414 2.696263075 0.09594792128
-37.2064476 2.697244644 0.09662863612
-37.20129776 2.696827412 0.09146264195
-37.20156097 2.69705677 0.09519982338
-37.19971848 2.697867155 0.09604778886
-37.1932373 2.693938255 0.09142717719
-37.19818115 2.699032545 0.09662565589
-37.19490051 2.698610783 0.09643524885
-37.19593811 2.696671724 0.09620699286
-37.20202637 2.699197769 0.09634765983
-37.20708847 2.697279215 0.09267374873
-37.21067429 2.69861412 0.09673434496
-37.20537949 2.696008682 0.09625339508
-37.21299362 2.697726011 0.09613344073
-37.20760727 2.697687864 0.09571027756
-37.19602203 2.695803881 0.09266772866
-37.20679474 2.698050737 0.09425485134
-37.20793152 2.69753623 0.09307876229
-37.20251846 2.69640255 0.0933701694
-37.20628357 2.696281195 0.09428080916
-37.21494675 2.69550848 0.09173965454
-37.20936966 2.696831703 0.09232583642
-37.20059967 2.698613167 0.09740820527
-37.1960144 2.69309473 0.09027338028
-37.19869232 2.697309971 0.09326440096
-37.19689178 2.692450523 0.08696949482
-37.19732285 2.696144104 0.09221991897
-37.1974411 2.696980953 0.09584912658
-37.19680786 2.696648121 0.09368497133
-37.19293976 2.69729805 0.0957351625
-37.19456482 2.696712971 0.09564045072
-37.19253922 2.697634935 0.09713563323
-37.20324326 2.696394444 0.09576761723
-37.19520187 2.696588516 0.09362730384
-37.19507599 2.691545486 0.08976355195
-37.19506073 2.694241762 0.09090417624
-37.19437408 2.692742825 0.09098142385
-37.18820572 2.69869113 0.09512752295
-37.19327164 2.696684599 0.09310561419
-37.19154358 2.694736958 0.08583399653
-37.1903801 2.701804638 0.09668591619
-37.20450211 2.696171999 0.09413996339
-37.21665192 2.692992687 0.0927529335
-37.18015671 2.666441441 0.06552642584
-37.18095779 2.661587 0.06579187512
-37.21313477 2.694943905 0.09488525987
-37.21099091 2.696713448 0.09527561069
-37.21586609 2.692459583 0.09739902616
-37.21450806 2.696019173 0.09030744433
-37.21665192 2.692204714 0.09440848231
-37.21565247 2.693140507 0.09390631318
-37.2154541 2.694083691 0.09171435237
-37.21913147 2.692093849 0.08870846033
-37.22900009 2.677247524 0.06765326858
-37.22614288 2.696331024 0.09619635344
-37.22182465 2.692598343 0.0910910964
-37.21922684 2.691606998 0.09758019447
-37.2181015 2.692340612 0.08980065584
-37.22138977 2.69207716 0.09264191985
-37.21517563 2.694154978 0.09292626381
-37.2167778 2.695258141 0.09902971983
-37.21579742 2.696793556 0.09959691763
-37.22254562 2.691852093 0.09609502554
-37.21834183 2.690765858 0.09652650356
-37.21956253 2.694016933 0.1004119515
-37.21873856 2.693464279 0.09905102849
-37.21809769 2.694051266 0.09997609258
-37.2200737 2.692486525 0.0989972949
-37.22104263 2.692175627 0.09794652462
-37.2125473 2.696625233 0.09089559317
-37.22262955 2.69342351 0.09224200249
-37.2228508 2.693073511 0.09793177247
-37.23670578 2.696846962 0.09202754498
-37.23692703 2.698162794 0.09529471397
-37.2271843 2.697290897 0.0941067338
-37.22428513 2.695458174 0.09275993705
-37.23597336 2.69751811 0.0939797461
-37.21689224 2.693342209 0.09093230963
-37.22093964 2.69206953 0.09023407102
-37.22306442 2.69401145 0.09058991075
-37.22362137 2.6940732 0.09327381849
-37.22418976 2.695667744 0.09112274647
-37.22352219 2.694605112 0.09198772907
-37.23431396 2.674639702 0.06726956367
-37.21880341 2.692842484 0.07813897729
-37.23552704 2.696810961 0.09265831113
-37.23577881 2.696316242 0.09120348096
-37.22803497 2.67887187 0.06778308749
-37.22248459 2.677723408 0.06726157665
-37.23213577 2.67813611 0.06772321463
-37.22652817 2.680271149 0.06781041622
-37.23809433 2.697283983 0.09231716394
-37.22370529 2.694530725 0.08757323027
-37.23872757 2.698850155 0.09467208385
-37.23258972 2.697140455 0.09359639883
-37.22550583 2.696233273 0.09209221601
-37.22408676 2.695151806 0.08921039104
-37.22839355 2.697475433 0.09430444241
-37.22516251 2.696192265 0.09375730157
-37.22663498 2.697322845 0.0876198113
-37.22643661 2.696851254 0.0931981802
-37.21547318 2.694563866 0.09040296078
-37.21778107 2.692167759 0.08832776546
-37.21735764 2.693086147 0.08737069368
-37.21671677 2.693453074 0.08906808496
-37.22306442 2.67928791 0.06745368242
-37.22297668 2.693664074 0.08879581094
-37.21389389 2.695617914 0.08832240105
-37.22716522 2.682092428 0.06785085797
-37.22015381 2.679080009 0.06789407134
-37.2050972 2.695828438 0.08987477422
-37.22166824 2.676166534 0.06754857302
-37.22154236 2.678881168 0.06771829724
-37.22850418 2.682583094 0.06795060635
-37.20471954 2.677580595 0.06449249387
-37.20434952 2.681174755 0.06410208344
-37.20690918 2.679935217 0.06407538056
-37.20704269 2.694797993 0.08763602376
-37.21822357 2.693733215 0.08377376199
-37.21822357 2.693092346 0.08620625734
-37.21477509 2.693051338 0.08286753297
-37.22414398 2.693243742 0.08541044593
-37.22079086 2.692776918 0.08553296328
-37.21797562 2.692942142 0.08286485076
-37.20571518 2.680549145 0.06421393156
-37.21615219 2.678425789 0.06532350183
-37.21214676 2.696051598 0.08792814612
-37.20283127 2.696517944 0.0916210711
-37.19869232 2.697231531 0.09086537361
-37.21282578 2.69608736 0.08940550685
-37.21107101 2.69634819 0.0896705687
-37.22224808 2.692820072 0.08318448067
-37.22319031 2.692939281 0.08423474431
-37.22256851 2.692942142 0.08586734533
-37.22590256 2.69668293 0.08989757299
-37.2361412 2.682286501 0.06738135219
-37.22261047 2.681225538 0.06755304337
-37.22868729 2.680903912 0.0680937171
-37.23697662 2.680048466 0.06720432639
-37.24482727 2.677638531 0.06576561928
-37.2349968 2.680605173 0.06742185354
-37.22421646 2.67776823 0.06706243753
-37.22406006 2.681684732 0.06759104133
-37.23951721 2.671876907 0.06675860286
-37.24277115 2.675259113 0.06644767523
-37.21937561 2.692693949 0.08320900798
-37.22978973 2.682384491 0.06794637442
-37.22479248 2.693174362 0.08375254273
-37.23843384 2.698392391 0.0875941515
-37.21768951 2.694122791 0.08513557911
-37.19475937 2.675701141 0.06524696946
-37.19610214 2.675709009 0.06525376439
-37.19842529 2.697246552 0.08879190683
-37.19045639 2.697827101 0.09221094847
-37.19171906 2.695688725 0.08920809627
-37.19231033 2.692412853 0.08559781313
