# .PCD v0.7 - Point Cloud Data file format
VERSION 0.7
FIELDS x y z
SIZE 4 4 4
TYPE F F F
COUNT 1 1 1
WIDTH 1302
HEIGHT 1
VIEWPOINT 0 0 0 1 0 0 0
POINTS 1302
DATA ascii
-44.83870316 4.456098557 12.75003052
-21.02530289 32.5182457 10.24560547
-21.56664658 34.33501434 7.364685059
-42.25877762 2.620443583 13.09963989
-40.74007797 1.773821592 14.01507568
-44.01132584 2.099111795 10.5642395
-43.49148941 4.686571121 15.54290771
-44.73805618 3.849743605 11.62332153
-44.07284927 3.7942307 12.39428711
-44.06641769 4.648204803 13.83642578
-46.81110001 6.983802795 13.81878662
-54.95747757 24.4892807 13.74511719
-51.249897 0.6787755489 12.88272095
-48.54467392 5.303689003 13.027771
-46.34397507 2.186322927 9.888671875
-46.02739334 6.316951752 13.54528809
-48.14894485 4.667051315 12.11029053
-43.79834366 3.950082541 13.38793945
-44.54789352 -0.01884675026 11.44241333
-43.83131027 -0.9247667789 12.11126709
-48.74675369 2.760154963 10.52093506
-45.7901268 3.169760942 9.878448486
-46.40906906 -0.4193701744 10.07305908
-45.91625595 0.6148984432 10.35012817
-45.41167068 -0.1170632839 10.32394409
-46.85065079 0.9841959476 9.772399902
-47.58837509 1.65715766 9.994903564
-42.08806992 4.200340271 15.71286011
-49.03693771 4.275939941 12.99191284
-48.84992599 1.206917524 10.44433594
-58.86761093 2.299976587 14.51559448
-58.82330704 -0.09316706657 13.90670776
-52.10072708 1.408149004 14.24838257
-50.1614418 3.063684702 13.86978149
-58.2395668 0.9593584538 14.11737061
-45.11503983 5.324951172 13.68844604
-47.97941971 6.047399521 13.11309814
-49.43912125 4.942070007 13.9887085
-49.66798782 3.378637075 12.89907837
-50.19231033 3.903415918 14.66546631
-49.67554855 3.887689829 13.7326355
-58.68640518 25.52466011 12.24087524
-47.21692276 12.64008808 18.60403442
-58.00775528 2.016912222 14.27746582
-58.26938248 3.02812171 14.58779907
-54.27651596 23.792099 14.6439209
-50.43798447 24.82911491 14.40628052
-57.14082718 23.93071175 14.10736084
-53.22481155 23.27179146 15.47683716
-59.81671524 1.889261961 14.59420776
-50.06912613 6.39444828 15.5010376
-60.11614609 -0.1139526367 14.48770142
-55.90314102 1.49522233 14.18167114
-51.05363846 3.06020093 14.53927612
-50.23514175 5.197981834 15.1647644
-52.93406296 1.161792517 14.22839355
-50.7127037 2.156543493 13.84301758
-52.10751724 5.073077202 16.95599365
-51.63541794 2.137274027 14.40039063
-44.15817642 5.187127113 14.64694214
-45.89273453 7.232905388 14.06521606
-45.6537056 7.413043022 14.99310303
-45.10517502 6.337059021 14.52456665
-50.8303566 24.04673767 15.1907959
-49.48559189 6.099720955 14.53396606
-43.18198776 5.999486923 16.1550293
-53.66498947 22.4659481 16.4670105
-48.77509689 24.02567673 14.99536133
-36.95425034 5.465330124 15.94689941
-49.85109329 25.35018921 13.43728638
-49.75387955 24.13949776 14.90603638
-54.59302139 22.14223862 16.65570068
-38.21572495 27.30832672 16.09533691
-37.97943497 26.06165123 18.30041504
-39.76613235 26.46451187 17.52017212
-38.44383621 7.056868553 16.2171936
-46.47317886 9.128521919 16.80871582
-46.32640457 8.02405262 15.44525146
-44.12436295 10.08735561 16.91860962
-50.50363541 8.122271538 15.64849854
-48.15825272 8.4087677 15.45303345
-46.35551834 9.9789114 16.7444458
-38.92643356 26.19073296 17.85238647
-46.13812637 25.93704796 15.82556152
-41.98581314 6.12707901 16.6244812
-35.26917648 4.307454109 15.6980896
-32.42853165 4.638784409 16.55923462
-42.37112045 5.247833252 16.01235962
-41.13120651 5.075939178 16.11300659
-49.31459427 9.642228127 16.39254761
-49.91003036 8.956067085 15.99401855
-49.37759018 8.066072464 15.34576416
-51.46142197 4.090566635 15.68280029
-59.95299149 22.21482277 16.4515686
-50.50748825 23.21248436 16.2611084
-54.71271896 22.7462635 15.64138794
-60.54526138 23.19834137 15.23016357
-66.10632324 24.62288666 14.18197632
-59.15164566 22.94202232 15.52536011
-51.65605545 24.83874321 14.45239258
-51.51706314 22.93108559 16.45352173
-62.34596634 26.70101929 10.70532227
-64.63298035 25.3212738 12.62945557
-47.31071854 9.819769859 16.41299438
-55.49026108 22.16425705 16.49960327
-51.05608749 9.052739143 16.26855469
-60.33885574 4.073469162 17.15252686
-46.01984024 8.226901054 16.48721313
-31.22340012 28.14296341 15.07592773
-32.15919876 28.07081795 15.02990723
-32.36588669 5.812790871 17.43063354
-26.60360336 4.034794807 16.6340332
-27.66510391 6.547053337 16.61676025
-28.29468918 9.903640747 16.23046875
-28.14358139 9.141251564 16.66879272
-30.96014786 5.949544907 14.97909546
-31.54319382 5.417333603 15.76791382
-35.21724319 27.76595879 15.54669189
-29.25296402 10.49703407 15.89846802
-30.66366196 5.147536278 15.22250366
-31.57650375 6.72383213 15.5090332
-29.12984848 8.096928596 14.91436768
-27.98805618 6.636250496 14.93710327
-28.36706161 5.20562458 16.4776001
-33.28012466 4.455698967 16.09237671
-29.52033615 4.984425545 15.17953491
-24.4215126 1.274016619 16.09140015
-26.55222702 1.117099047 14.71337891
-27.39703751 0.416164875 14.70385742
-25.75101852 2.490124941 15.67224121
-25.36116409 1.121306658 15.60028076
-27.21876907 2.820779562 15.90313721
-27.54842758 4.286647797 16.18695068
-27.73111343 8.034529686 16.04937744
-27.1781044 5.415331841 16.39022827
-27.86395645 6.933294296 16.00869751
-26.78012466 6.096886635 16.85671997
-29.9314003 11.75002861 16.44610596
-47.78855515 29.87312889 9.517059326
-47.33877945 28.14287949 11.4168396
-75.86756897 28.21066093 8.807373047
-50.60393143 26.046772 12.97055054
-85.01651001 26.1673317 8.983123779
-66.35522461 28.18536568 9.066101074
-40.98099136 27.77272034 15.11694336
-30.61487961 31.72990227 9.919677734
-39.22698593 32.25307465 8.101837158
-32.77820969 33.9339447 6.736541748
-31.92716599 33.2442131 7.495025635
-30.80630875 32.41057205 9.065368652
-36.1090889 33.421875 6.801849365
-35.1962471 32.52335358 7.930053711
-35.69788742 32.08911514 8.465881348
-31.58714676 31.15052223 10.56530762
-26.45780563 32.22439194 9.706207275
-29.69174576 31.5273037 10.00726318
-29.86623764 32.18711853 9.348297119
-34.51689529 31.01294136 10.30221558
-35.14144516 31.58282661 9.335388184
-35.70208359 31.17037392 10.11657715
-34.08398819 33.58065796 7.016693115
-35.16306686 30.60055351 11.04855347
-36.27175522 31.69981575 9.184661865
-36.75259781 32.20965576 8.262390137
-45.22597885 32.4875412 6.337005615
-44.16342545 32.65080643 6.620117188
-36.27965927 30.75013542 10.86233521
-35.02749252 33.81017303 6.331634521
-34.06502151 30.40616035 11.31097412
-33.01226425 30.23454094 11.92163086
-36.88502884 30.3614254 11.57659912
-32.36777878 28.88302422 14.04528809
-31.35945511 27.74730682 15.8140564
-31.5627861 27.26641083 16.90838623
-31.13807297 29.98842049 13.20639038
-31.20323563 34.88088608 4.71786499
-25.70706558 36.00012207 4.035858154
-30.65050125 33.52826691 7.361175537
-30.33259964 34.04447174 6.194763184
-26.79657364 34.46089172 6.406280518
-31.49076462 33.97258377 6.6355896
-33.83978653 34.25473404 5.906280518
-32.13455582 34.66056442 5.271148682
-32.79822922 34.45111465 5.85925293
-32.37652206 35.43297577 4.319610596
-34.10988998 34.85570145 5.02230835
-33.15603256 34.86279678 5.130950928
-27.4372139 33.94627762 7.206726074
-33.72765732 35.45124054 4.305633545
-34.91844559 35.14382553 4.354278564
-41.64536667 33.37003708 6.013824463
-36.00710678 34.62289047 4.677886963
-34.95763779 34.385952 5.27947998
-37.03642654 34.21964645 5.201202393
-38.02723312 34.47083664 4.88772583
-35.15382767 33.17013931 7.278839111
-43.32218552 32.84955597 6.888305664
-43.52145767 33.25977707 6.060455322
-42.58270645 33.21148682 6.572814941
-40.64293289 33.68065643 5.295379639
-39.6051445 33.48518372 5.882080078
-45.56649399 33.05169678 5.615631104
-47.25471878 32.91455841 5.331970215
-47.26977158 31.72192574 6.955230713
-48.49778366 31.690382 6.868713379
-50.39871597 29.92738533 8.765594482
-44.58743668 33.17394638 5.747924805
-39.48343277 32.94363785 6.88961792
-37.26893997 33.51673126 6.25289917
-36.83743668 31.29424477 9.919311523
-40.58595657 32.59908676 7.612884521
-41.66076279 32.94068527 7.100830078
-45.97517776 31.82202339 7.121002197
-46.48025131 32.54076004 6.017913818
-48.67325211 25.8849144 13.16595459
-37.37182999 31.85065651 9.024169922
-40.61108017 33.07105255 6.434082031
-40.81861496 29.69329262 11.86334229
-40.26427841 31.27261162 9.930541992
-42.7513237 30.75175285 9.892730713
-38.7899437 30.49362373 11.16699219
-34.74647141 30.15531731 11.83795166
-43.70441055 32.3884964 7.578399658
-41.80733109 32.40724564 8.17489624
-42.99077225 32.09009552 8.384216309
-52.04795456 29.9244709 9.155731201
-53.97883987 26.72792816 12.10797119
-42.75027084 25.97189331 18.52120972
-39.79784012 25.82320786 18.32739258
-41.58404922 25.87027359 18.70120239
-37.02550125 26.08615494 18.65567017
-43.92369461 26.71850777 15.66809082
-40.8259697 26.35129738 17.78738403
-52.69545364 24.69249344 14.38717651
-53.77236557 28.70893669 10.86016846
-53.87714005 30.98520088 7.684570313
-51.65368271 26.03047943 12.79785156
-52.11500931 27.09106636 11.90377808
-44.25503922 28.49022102 12.45336914
-52.32182693 25.22021294 13.58822632
-59.13764572 29.07388496 7.805511475
-54.39493942 25.36213112 12.89956665
-51.12082291 25.37709427 13.58743286
-56.16344833 24.57398605 13.55984497
-45.30626297 25.00988197 17.70404053
-36.99610519 24.71292305 19.32723999
-36.14213181 25.84169006 19.0753479
-36.86375046 25.40709686 19.25473022
-34.13494492 25.65120888 19.05447388
-35.16733932 26.16427803 18.59463501
-32.96824265 25.67480087 18.13040161
-35.17062759 26.61444473 17.46710205
-32.24052811 26.41945076 17.46612549
-34.17428207 26.20055962 17.92819214
-29.07398605 27.76187897 16.25738525
-29.46615982 27.30737495 17.13882446
-33.33143234 26.37104797 17.40274048
-36.1423378 26.74680328 16.91467285
-33.01975632 27.11182404 16.67810059
-35.05304337 29.08074379 13.46142578
-32.26915359 27.58269882 16.03118896
-35.33266068 28.49031258 14.50317383
-36.09817123 28.00795937 15.14074707
-36.129673 26.3363266 18.01657104
-33.93722153 29.89598656 12.33126831
-36.90987778 29.49070168 13.41992188
-34.22621536 28.66055489 14.07565308
-33.2632637 28.38290215 14.59030151
-34.06579971 29.31770897 13.22473145
-33.3700676 28.95151329 13.79309082
-38.29314041 29.45300102 13.23455811
-29.97381973 30.91820717 10.9491272
-36.56677628 29.92452812 12.41131592
-32.9211998 29.53473854 13.05197144
-31.80538559 29.53196526 13.51156616
-34.18583298 26.78104782 16.97476196
-31.19042587 26.6775589 17.7086792
-24.47771072 28.7556591 15.64889526
-26.8825264 26.92995262 18.10644531
-29.60782242 28.8670063 14.17926025
-25.60571671 26.73946953 18.58224487
-23.70863724 27.1089325 18.29992676
-27.90784073 28.11686516 16.23178101
-26.97504807 27.69751358 17.01382446
-25.96225357 28.06962204 16.64559937
-30.32321548 27.57987785 16.35494995
-23.10046768 29.19900703 14.59829712
-25.90835953 28.58011818 15.94998169
-26.78180313 28.42486763 16.09771729
-26.6902504 29.3006916 14.03961182
-26.25839615 28.75034523 15.13711548
-25.26848984 28.79315376 15.34442139
-25.87084579 27.37482071 17.52008057
-24.9962883 26.02539825 19.80178833
-23.55633163 28.76823997 15.46878052
-25.4900856 29.28620338 14.43432617
-23.63941574 27.77744484 17.25595093
-22.87705612 27.40344429 17.83673096
-30.18470383 29.72537422 13.19232178
-28.66424942 28.39806175 15.16326904
-25.91074753 31.53637505 11.25204468
-27.41719437 28.65353966 15.10049438
-22.74833298 28.45488548 16.25701904
-28.16947556 29.15955544 13.94110107
-19.70414352 32.40021896 10.07305908
-20.67339706 29.33515358 14.64419556
-19.1139946 30.48185158 13.40386963
-27.64494705 31.31539345 10.7166748
-29.8014946 28.12428284 15.33178711
-30.5717659 28.39204407 14.6769104
-30.63888168 27.9481678 15.43762207
-30.88456345 29.22432899 13.9208374
-26.01895523 30.62830925 12.83105469
-27.34902573 31.96212578 9.811859131
-29.85265732 32.98645401 8.378051758
-24.4350853 31.07795143 12.19561768
-25.07530594 30.59863091 12.98504639
-24.87359238 31.65172005 11.30123901
-28.19375992 33.07765961 8.273406982
-28.21427536 31.69460106 9.903381348
-25.9215889 32.71696472 9.096984863
-29.51214981 30.14632988 12.29934692
-28.99790573 31.86961555 9.608917236
-28.85484695 31.25690651 10.40948486
-28.48926926 30.65649605 11.61172485
-25.45284653 31.17627144 12.15615845
-26.38746262 31.0316143 11.9984436
-26.89987564 30.51921654 12.63098145
-20.2890358 30.16496468 13.5921936
-27.30373764 30.83778191 11.75839233
-30.1903038 26.31673622 18.10064697
-22.98679733 30.33806801 13.07675171
-24.0444603 30.43327904 13.01504517
-29.26143265 26.89113045 18.06030273
-24.73773575 27.25438118 17.90081787
-22.05359268 25.78280449 20.20480347
-24.55141068 26.75179482 18.82269287
-29.12956619 25.95701408 18.54138184
-27.30912399 25.32946777 19.78134155
-23.59608841 26.44658279 19.39822388
-26.08824539 25.16808701 20.50085449
-21.7050209 26.95775795 18.88922119
-23.47703171 24.83292961 21.54226685
-25.72386551 24.49247932 21.40377808
-21.16910172 25.85691833 20.64733887
-19.27822495 25.24133492 21.48703003
-21.95685959 27.37169075 18.00100708
-16.69092178 26.40166664 20.18243408
-16.66975021 25.67573166 21.31936646
-17.61922836 26.06130791 20.67163086
-18.44896317 25.7095623 21.1086731
-17.26752853 25.03254509 21.9659729
-16.78312302 27.10559654 19.21868896
-15.85639572 27.54752541 18.56204224
-15.63670731 26.14590836 20.64868164
-19.56912613 29.26493645 15.27682495
-21.15361404 27.83394432 17.44464111
-16.13000107 28.69368935 16.79638672
-21.41456985 28.44854355 16.57785034
-20.07562637 28.41762352 17.02175903
-21.43949509 29.81450462 13.71835327
-18.79943466 29.0825634 15.82382202
-12.74358368 26.45368004 20.6322937
-17.32081985 34.93775177 7.251342773
-22.0689888 30.26082039 13.14978027
-18.30888748 31.82168388 11.63061523
-15.11203766 30.95037651 13.23550415
-21.19470596 30.71376228 12.75524902
-19.8964653 30.97509193 12.71096802
-19.47664261 31.63439751 11.80169678
-20.23194504 32.00772095 10.99023438
-21.72229385 31.53918266 11.76690674
-21.19150162 32.04808426 11.18771362
-19.03977585 31.97562599 10.83157349
-18.05146408 32.17392731 10.88937378
-18.44318771 32.53017807 10.12182617
-19.57009506 34.25185013 8.224121094
-22.03818893 32.1650238 10.88937378
-17.40564346 32.1402359 11.42166138
-17.11860275 32.60383987 10.55761719
-18.00260544 34.10923004 8.338592529
-17.43317795 30.39177895 13.72485352
-22.52267838 29.74248695 13.82559204
-19.41581345 29.81554604 14.28381348
-17.28855515 29.72907448 15.17169189
-16.18696976 35.03342056 7.443664551
-17.26941299 28.75110817 16.90249634
-16.73398972 29.3377552 16.05477905
-17.87106705 29.30965614 16.01663208
-18.62607956 28.74536324 16.91098022
-20.23626328 33.59250641 8.925628662
-18.75138474 34.9021492 6.929260254
-18.11198044 36.60932159 4.910003662
-19.26482773 36.5070343 4.611724854
-16.65234756 35.58154678 6.678009033
-20.30660629 34.7220726 7.087249756
-20.39999771 35.10453415 6.056121826
-19.91550827 35.6734848 5.425140381
-20.8639946 35.39999008 5.421661377
-23.62345505 34.02759171 7.667297363
-18.8957634 35.83498383 5.713012695
-21.3923912 35.8581543 4.738342285
-25.31944656 33.39535904 8.321044922
-21.98394394 33.83743286 8.387481689
-24.11375046 33.42094421 8.482086182
-23.03572464 33.61492538 8.490631104
-25.83935165 34.65851974 6.048126221
-27.10264969 32.57191086 9.009399414
-24.07056808 34.49947739 6.760772705
-23.20356369 35.30306625 6.053771973
-24.66781235 33.87482452 7.481933594
-26.63677597 33.2378006 8.13079834
-28.79822159 35.4085083 4.206817627
-27.83652115 35.06278229 4.862976074
-31.1795845 32.7784462 8.235198975
-27.86367416 34.46915817 6.054779053
-23.20994186 34.66861725 7.047973633
-25.02918625 34.30147934 6.58190918
-23.65130997 35.77072906 4.834625244
-22.8567543 36.33779526 3.931854248
-25.75529099 35.3222084 5.032836914
-29.18947983 34.61632538 5.435943604
-26.59478378 36.29064178 3.566497803
-27.6278038 35.79073715 3.85269165
-26.82099533 34.96550751 5.494415283
-30.0521431 35.17582321 4.473510742
-30.3968544 34.50899124 5.2472229
-22.47935104 35.72922134 4.798858643
-21.91955185 35.35041046 5.691650391
-20.92172623 36.44738388 4.131835938
-21.77277756 36.3473053 3.944641113
-18.42116928 37.05616379 4.032531738
-22.09194565 37.18626785 3.233184814
-20.39802933 36.09621429 4.673400879
-18.25651932 37.56833649 3.208068848
-16.28212357 37.52335739 3.946685791
-20.10737228 36.89379883 3.968109131
-17.28023148 38.20015335 2.823272705
-11.71203232 38.90495682 2.004577637
-15.80582809 38.4885025 2.645202637
-14.17414856 14.84894848 36.94204712
-13.8134079 14.60166454 37.61734009
-13.6022377 14.04594517 32.92959595
-13.20980453 13.14802074 32.85122681
-8.649570465 13.69403362 40.00961304
-8.584709167 14.32449818 39.14266968
-9.497016907 14.58910275 38.55990601
-7.699733734 14.04557514 39.59439087
-11.95351791 15.31401348 38.7414856
-10.43283463 13.7923708 39.82369995
-7.76530838 13.51539135 40.57357788
-8.467372894 15.03089046 38.35397339
-11.02291489 17.21195221 34.83328247
-11.60946274 16.58213806 35.57369995
-12.78529739 9.705082893 30.53140259
-3.785865784 16.82902908 36.11599731
-8.18031311 16.37086296 36.52145386
-11.61078262 16.19626236 36.66793823
-6.238857269 16.13629723 36.681427
-14.25466156 15.24598026 33.09713745
-14.53915787 14.17258549 33.78079224
-12.98973083 15.38296604 37.96359253
-12.81110764 15.89481831 36.87582397
-13.70812988 15.33666134 36.98623657
-12.14413071 15.89572048 37.7114563
-14.45658493 14.09980679 36.64993286
-13.90689468 13.35594845 39.12521362
-13.19300079 13.11277485 41.19906616
-6.070678711 13.2657938 40.81674194
-9.860916138 12.79127026 41.33877563
-12.13199615 13.43409634 40.98233032
-11.97409058 12.58775043 42.65762329
-5.038303375 13.37827587 40.73703003
-11.18434525 12.76351452 41.81460571
-6.973026276 13.2515707 40.93710327
-6.633495331 12.73321819 41.62026978
-7.749824524 12.86794949 41.46810913
-6.141609192 12.32542801 42.75985718
-5.229442596 12.43592358 43.84146118
-7.530384064 12.49199581 42.55014038
-12.52417374 12.93036938 41.95028687
-14.32491684 12.85561657 40.96749878
-13.19841003 10.79550648 44.27786255
-13.66387939 12.63399029 42.03335571
-9.328086853 3.99245286 54.30007935
-11.8219986 10.87878227 44.4503479
-10.19327164 6.659787178 50.09524536
-14.13152313 11.47202873 44.0541687
-12.30457687 11.15241528 43.90859985
-13.1664772 11.74427605 43.724823
-14.11000824 8.512285233 46.66049194
-14.35358429 8.412442207 31.87704468
-13.6187973 9.726470947 31.45541382
-14.55308914 10.81365967 44.5239563
-14.8042717 12.36594391 42.38821411
-13.94775009 12.04386616 43.10714722
-16.27917099 12.06334305 43.43374634
-14.88650894 11.86957264 43.65548706
-10.36255646 -0.3968570232 32.2829895
-15.29886246 10.98926258 43.99081421
-16.55912399 9.78057766 29.31802368
-13.29335403 8.305663109 47.16567993
-14.26919556 1.856856585 31.89859009
-13.15102005 9.178603172 46.01431274
-9.083972931 9.136219025 46.69387817
-8.780582428 11.08179188 46.0496521
-10.69520187 11.06526756 44.40603638
-8.569389343 9.898588181 46.31790161
-10.14852905 11.0661087 45.62045288
-5.591098785 9.666576385 46.73513794
-10.90288544 10.20382023 45.96121216
-9.388015747 11.08773994 44.36697388
-5.091453552 11.32913017 45.00308228
-6.985363007 11.17880726 44.48703003
-7.488246918 11.23217869 45.71603394
-6.147708893 11.99183846 44.24325562
-8.466938019 12.33317661 43.76846313
-11.17100906 12.34074116 43.07809448
-9.562683105 12.4738493 43.68960571
-10.42114258 12.02906418 43.73153687
-7.226013184 12.29435444 43.79501343
-10.33340073 9.122544289 46.4057312
-2.902992249 12.85836124 43.23995972
-3.065021515 10.7468586 46.41921997
-2.561527252 12.49268246 44.28366089
-4.310623169 11.88255501 44.46182251
-1.814914703 12.81192493 43.58798218
-6.273532867 11.33295822 45.35519409
-3.940383911 12.93085194 42.8366394
-3.011772156 11.49275875 45.90274048
-3.283435822 11.50002384 44.84237671
-6.569431305 9.100884438 47.30020142
-4.574211121 9.131307602 47.35079956
-2.982753754 7.886599541 49.45993042
1.300041199 11.8500948 46.54812622
-1.147071838 11.57894707 45.10379028
3.982368469 10.15744686 47.20236206
0.1153335571 11.50781918 46.91976929
2.009231567 9.723244667 47.52981567
-6.668231964 10.0926609 46.56051636
0.1181983948 10.63566399 47.29428101
-0.002914428711 11.67866325 45.76791382
-0.7098197937 10.569561 46.87472534
2.6275177 12.29668522 44.72305298
-0.7284545898 12.71909428 43.84310913
-0.1776657104 12.60106373 42.68362427
1.852249146 11.73430252 45.17123413
0.7973632813 11.8713913 44.94229126
1.900840759 13.53106976 42.18197632
1.495491028 12.74080563 44.44430542
-1.190433502 12.78321552 42.82815552
0.406085968 14.19610119 40.42379761
0.4301834106 13.37649059 41.57632446
-1.146091461 13.11233425 41.75875854
1.106613159 12.73037052 42.95089722
3.036815643 10.12689781 47.12753296
3.316955566 9.506846428 47.9203186
2.683246613 14.53866291 40.56521606
1.863426208 14.74695683 40.193573
6.551040649 13.55949116 42.76693726
5.675224304 13.32616329 43.05123901
4.153896332 14.14181995 41.42623901
1.601905823 14.18764782 40.95187378
1.961303711 17.76829529 35.83035278
-3.351371765 13.21517849 41.34933472
-2.385681152 14.07744694 40.16146851
-5.700237274 13.83108044 40.19314575
-5.573078156 14.8906374 38.56900024
-3.18189621 12.94291782 42.14828491
-2.432605743 13.25162792 41.58602905
-2.122829437 12.78488827 42.4916687
-4.273078918 12.93190289 41.6234436
-5.499191284 12.75435543 41.58560181
-1.834846497 16.0669117 37.42581177
-5.407123566 16.06999207 36.88150024
-0.8446807861 15.7726984 38.07241821
-4.492458344 15.67431736 37.54830933
-2.782428741 16.94303131 35.82455444
-5.595458984 16.58943748 36.23587036
-2.700691223 18.08514404 34.16867065
-2.685333252 17.57381058 34.95779419
-1.692325592 17.25252342 35.39242554
1.507015228 15.91686344 38.42941284
2.422660828 17.04177475 36.68338013
0.6736984253 17.88642502 35.33572388
1.126903534 14.65408421 40.16000366
0.3299026489 16.21974945 37.86178589
2.648677826 15.63439846 39.00314331
1.462070465 15.19220257 39.46914673
3.562362671 14.44136143 40.8734436
3.484157562 15.40515804 39.5632019
0.1797103882 15.34221935 38.87039185
0.5172424316 14.78344059 39.71334839
-0.1994781494 18.28740501 34.48629761
0.7878952026 18.50478935 34.53231812
0.3464584351 19.00041199 33.89242554
1.050537109 19.51374817 33.25674438
-2.843963623 20.71084976 30.65219116
-0.9604148865 21.8870697 29.38754272
-6.02432251 21.09195328 27.25680542
1.401603699 20.79726219 31.29141235
-1.664489746 21.05990219 30.19955444
0.2263450623 22.15727234 29.25588989
-5.416744232 21.89644051 27.74539185
-0.4043540955 20.15120506 31.98825073
2.211162567 20.96640015 30.95321655
2.059650421 20.47618675 31.82217407
-2.480312347 21.21924591 29.82113647
1.509674072 21.22163391 30.58334351
1.066589355 21.69621086 29.87234497
-3.492588043 23.273386 26.73184204
2.149284363 21.50482368 30.07327271
-1.659252167 22.21821022 28.71725464
-2.622592926 20.03935432 31.56698608
-3.316947937 21.16248703 29.72592163
-2.592811584 21.69380951 29.10043335
-1.883026123 21.56624413 29.412323
-4.924415588 21.69142914 29.03115845
-3.665592194 21.9901104 28.92507935
-5.895786285 24.18004608 25.95254517
-5.040958405 20.68212128 29.82394409
-6.360801697 20.37854767 27.9102478
-5.528911591 20.86382675 28.43972778
-7.218811035 19.87533951 28.64248657
-7.976394653 19.63469124 29.36917114
-8.949279785 18.85677147 30.56222534
-3.616275787 20.08648872 31.33273315
-8.840351105 18.22433281 27.07418823
-8.045154572 19.80368233 28.2114563
-7.324287415 20.23773575 27.64810181
-6.837100983 19.66282463 30.00576782
-10.39134598 15.86428165 28.05960083
-7.084140778 21.05903244 27.34555054
-6.763195038 22.2533493 27.33554077
-8.194763184 20.78309059 27.27603149
-7.607120514 20.80958176 26.94754028
-3.403377533 23.75531387 25.88235474
-2.558387756 22.33763504 28.17233276
-3.511615753 22.73310089 27.81845093
-2.482192993 23.71236229 26.21298218
-2.478244781 22.97601509 27.11233521
-8.059505463 21.30872917 25.27053833
1.996643066 23.61856651 27.47219849
-4.103851318 19.50935364 32.01559448
-4.472194672 22.87932205 27.3288269
-4.403957367 22.33573723 28.26571655
-4.601810455 18.88627243 32.84017944
-6.673324585 18.69363403 32.6892395
-5.051971436 19.48608398 31.9515686
-3.502601624 18.41972733 33.58322144
-1.624195099 20.03039551 31.82168579
-1.231838226 19.34946823 32.66189575
-0.06196975708 19.49315071 33.00466919
-1.559482574 18.05974007 34.47647095
-4.705646515 17.56268311 34.90463257
-5.772434235 18.48533249 33.30026245
-3.649158478 17.84526634 34.49832153
-4.655574799 18.17191315 33.93014526
-5.798377991 17.85122299 34.36929321
-0.5732727051 16.85529518 36.44876099
-4.691246033 17.05066872 35.8208313
-5.75793457 17.25406456 35.42788696
-3.71905899 17.23799515 35.33285522
-4.536174774 16.41452026 36.57327271
-1.663139343 16.784729 36.47061157
-8.97901535 -1.346884727 33.5506897
-0.6104736328 17.62163162 35.22299194
-6.914150238 17.4489193 34.91372681
-8.088191986 18.22081375 28.61758423
-8.579338074 17.5471096 32.04678345
-12.13847351 10.75726509 30.16409302
-9.035007477 17.19402313 34.78341675
-8.029438019 17.57483292 34.27102661
-9.95822525 17.52511215 34.27749634
-9.028205872 17.73005486 33.75863647
-7.030956268 18.07470131 33.59329224
-7.554775238 18.17371941 32.37857056
-6.851154327 18.69189072 31.35507202
-7.953392029 19.09037209 30.38241577
-10.97311401 17.52612114 32.64877319
-8.240737915 17.97600746 33.12283325
-8.782878876 17.56266212 28.72720337
-8.475185394 19.13084602 29.78384399
-7.882148743 19.189291 26.99954224
-8.958229065 20.40737534 27.18026733
-10.39661789 14.83841419 25.70059204
-10.09375381 13.0687952 25.94839478
-11.0117569 13.37281704 29.9491272
-12.98732758 13.97502041 29.35348511
-10.79980469 15.06939793 30.21011353
-12.42555237 13.10217953 31.63949585
-13.16075516 15.11176777 32.20681763
-11.08339691 12.36926174 26.18954468
-13.3986702 12.48049831 33.00149536
-13.82319641 13.1292429 33.39401245
-14.29138947 10.01039124 26.85043335
-11.80911255 15.41323376 25.29324341
-12.90523911 12.62756062 32.33425903
-11.77202988 13.01049709 30.58676147
-12.82486343 13.67252636 32.30172729
-11.61454773 11.80280495 29.98880005
-14.03170013 10.19676495 32.65835571
-13.21561813 10.68840504 31.35513306
-10.81447601 11.08920288 25.45333862
-12.50299835 11.8581295 29.59689331
-13.71922302 12.83552456 29.6444397
-12.1915741 12.78689671 26.89260864
-14.71572495 11.5403347 28.63949585
-14.7636795 11.15293312 30.15231323
-13.09671783 10.47234344 26.60067749
-14.69586945 10.58082962 27.85317993
-14.61672592 10.27787209 30.49398804
-13.21345901 10.49594307 30.04135132
-14.18890381 11.85809422 29.92391968
-14.11323547 11.07514381 33.75186157
-12.81016541 13.30070972 27.99557495
-14.69005966 16.37251472 33.7817688
-14.40638733 15.12816525 36.21859741
-13.88841248 12.13685703 28.17440796
-13.19729614 11.96446037 27.05435181
-13.84699631 16.80955315 34.75296021
-12.85452652 15.82334614 25.42434692
-12.31302261 16.96758842 34.81710815
-12.310009 15.71400166 31.33486938
-13.06635666 17.50364876 33.8999939
-9.316875458 17.85430717 30.92782593
-9.418972015 16.34488297 26.61941528
-12.31562042 17.7342968 32.12313843
-9.931247711 16.92089272 29.77981567
-9.202903748 16.76625061 28.78359985
-9.529376984 18.34179115 29.7159729
-9.865314484 15.62934589 29.25656128
-12.60792923 16.27997971 35.74411011
-10.6437912 16.50749016 35.81820679
-11.58958817 15.02861691 31.00363159
-13.70076752 15.87876225 35.92160034
-10.87886429 17.6816864 33.77700806
-14.94714737 14.51061916 35.50784302
-13.94939041 16.42981339 32.68008423
-15.09692383 14.73307896 34.54275513
-14.74463272 15.62712574 34.90933228
-12.48450851 17.81853104 33.23892212
-14.10890579 17.1860714 33.49935913
-11.6758461 17.72627449 33.21676636
-9.911003113 17.41158104 31.95529175
-13.31752014 17.47431755 32.7706604
-11.28480148 17.5032711 31.36190796
-9.986179352 17.05678558 35.16500854
-8.868392944 20.88054657 26.28872681
-10.25238037 18.35583878 26.5383606
-10.55574799 17.65423775 30.50222778
-12.14585876 33.97899246 9.628845215
-15.69749451 33.70573044 9.541351318
-13.04197311 32.94013214 11.32385254
-14.37929535 31.65464592 12.60995483
-14.58546829 32.42045593 11.68475342
-12.8300972 35.10562134 7.818634033
-12.85890198 35.87309647 7.114196777
-13.27016449 33.7865715 10.15341187
-13.9804039 34.05712509 9.29788208
-11.05449677 34.07544327 9.616516113
-11.73771286 35.05131149 8.380310059
-11.7174263 34.34851074 9.016693115
-9.453899384 35.48021317 7.984802246
-8.545497894 35.67170334 7.601593018
-14.14949036 34.56361008 8.300598145
-12.83316422 34.24101639 8.838256836
-14.85637665 34.16652298 9.190124512
-17.32821274 31.60748863 12.15093994
-16.7364769 33.87290955 9.034973145
-15.27645493 31.63350487 12.30944824
-14.58246231 35.78851318 6.40802002
-12.44342804 36.50314331 6.461242676
-13.79964066 35.35316467 7.211456299
-8.846008301 35.03071213 8.512420654
-11.73366547 36.02731705 7.3644104
-16.4196434 36.22146988 5.866516113
-14.1298027 36.44179153 5.306365967
-15.18239975 36.96846008 4.565246582
-9.142658234 37.56464005 5.048217773
-13.47932053 36.08631897 6.38760376
-16.06787491 36.82065582 5.032012939
-15.70238876 35.59095383 6.525695801
-16.78979874 34.52195358 8.179107666
-12.50217819 30.93062401 14.0022583
-13.37228012 32.00447464 12.34500122
-17.32937241 30.96854973 12.9755249
-16.24457169 31.22522545 12.55892944
-13.63670731 31.13791466 13.40011597
-15.61996841 30.22651482 14.23461914
-14.98078918 29.87268257 15.19671631
-16.75514603 30.09863091 14.33886719
-16.16679001 29.719244 15.14074707
-14.39559937 28.46681786 17.36520386
-14.29847717 29.25148964 16.23013306
-15.17765427 28.71616936 16.74401855
-16.54162979 28.16954231 17.69006348
-12.0152092 29.77218819 15.78198242
-13.75881195 30.06462669 15.21984863
-15.58948135 29.26337242 16.01324463
-11.89986038 29.13596916 16.71456909
-12.95699692 29.5955143 16.03979492
-11.1314621 29.76756859 15.95571899
-11.54991913 30.63770866 14.51000977
-10.70510101 30.31806374 15.13522339
-12.52390671 30.30999947 15.06445313
-10.76529312 29.39248466 16.78933716
-10.93942642 28.69576454 17.60565186
-8.656303406 28.62379646 18.21017456
-7.666473389 29.75484657 16.61535645
-9.900756836 29.94313622 16.17440796
-10.97249222 28.02788353 18.54193115
-12.15965652 28.18371582 18.00204468
-7.581241608 31.35103416 14.03994751
-8.46232605 27.45240021 20.03979492
-8.663986206 29.51466179 16.98202515
-5.287338257 30.42349052 15.91027832
-3.430042267 31.43261528 14.71640015
-10.21938324 33.63195419 10.41494751
-11.70819092 27.61510468 19.15725708
-10.83000183 27.54014206 19.24182129
-7.495883942 28.46412086 18.62985229
-7.579627991 31.84202385 13.21530151
-5.833839417 27.83510399 19.47845459
-11.12156677 32.41558838 12.18225098
-9.647678375 30.66150475 14.91607666
-9.643985748 31.4812336 13.80419922
-9.645889282 34.28377914 9.316070557
-8.597297668 31.09533119 14.52056885
-10.49202347 35.52013397 7.899200439
-9.857055664 34.95399475 8.468109131
-11.75793457 33.55705261 10.60134888
-9.454502106 35.92469788 7.186950684
-9.280181885 33.09439468 11.36923218
-9.422763824 36.53368378 6.414550781
-11.05129623 37.13483429 4.959899902
-11.27883911 36.66833878 6.161102295
-10.38746262 36.31536865 6.813262939
-8.444763184 36.34244919 6.539672852
-8.892559052 37.07679367 5.794586182
-4.971599579 35.71727371 8.506866455
-7.93415451 33.08300781 11.3270874
-10.66462326 33.03869247 11.38064575
-9.758045197 32.41959763 12.54196167
-6.317016602 30.62195015 15.4447937
-6.471878052 31.12131691 14.53100586
-3.436443329 31.95269966 13.93560791
-4.38898468 31.43719673 14.46148682
-0.9622421265 32.92133331 13.13406372
-1.494087219 32.02736282 13.87002563
-4.970733643 32.60592651 12.77832031
-6.606864929 31.59329414 13.61593628
-6.638786316 29.65863609 16.75354004
-7.136558533 30.27750587 16.01412964
-5.341094971 30.97423744 14.98010254
-3.065898895 30.32894325 16.17901611
-2.689537048 30.99696159 15.22244263
-5.500850677 31.5143528 14.07827759
-5.961666107 29.12655067 17.54928589
-0.9985351563 35.06384659 9.955535889
-7.362159729 29.07607079 17.59646606
-6.44783783 28.47891808 18.4979248
-6.529117584 27.29194832 20.33972168
-5.514343262 29.76437187 16.7064209
-9.965789795 28.29488945 18.28027344
-6.01947403 32.5276947 12.61013794
-13.27689362 10.82637691 23.27676392
1.479564667 27.49032402 21.15231323
-6.977657318 27.99435997 19.44821167
-1.613342285 28.25531769 19.90939331
-3.766841888 28.38985825 19.01934814
-3.880851746 28.95184135 17.95587158
-3.027526855 29.32489967 17.50546265
-2.879863739 28.86680412 18.43930054
-4.750507355 29.28520393 17.36953735
-3.305797577 29.82739449 16.89874268
-0.1901016235 27.70380402 20.96682739
-2.345825195 29.918787 17.01452637
-2.010620117 29.32869911 17.94036865
-3.839855194 29.46957207 17.23217773
-1.63066864 30.59090996 16.09790039
2.671852112 29.78170586 17.6005249
0.1327438354 29.43493843 18.24072266
2.277557373 29.10923576 18.78424072
0.4389762878 30.01952934 17.3036499
-0.3794136047 28.172369 20.11123657
1.072898865 28.99154091 18.96453857
-2.671726227 28.29328537 19.44924927
-2.234687805 27.19640923 21.23446655
1.335258484 29.52065849 17.97927856
-0.03857421875 28.8085041 19.16461182
1.86782074 28.56514168 19.7243042
0.785861969 28.45582771 19.85021973
-0.9621734619 29.87278557 17.37432861
1.007968903 30.51331139 16.48880005
1.503944397 30.03667259 17.15426636
2.172580719 30.41496468 16.54632568
2.644004822 31.03014565 15.99584961
0.5185508728 31.05371666 15.73080444
1.674850464 30.95751762 15.79144287
-0.5655632019 30.99513054 15.58282471
-0.2282485962 30.49864006 16.43453979
3.351932526 34.66290665 10.78707886
-1.346851349 31.37957191 14.81326294
1.228954315 31.55891228 15.03039551
-0.4575042725 32.20842361 14.06680298
-3.521636963 32.66173935 12.89523315
0.2559432983 34.77242279 10.30004883
0.7696075439 32.21554184 14.22543335
-12.67195892 10.84234715 24.97549438
-2.13842392 35.02592087 9.82434082
5.660324097 34.46460724 11.99081421
6.495517731 34.60312653 11.93051147
3.218978882 36.82897186 7.358154297
0.9040718079 33.88081741 11.95892334
1.168540955 34.29762268 11.12329102
1.528022766 34.93851852 10.19247437
1.383861542 36.86480331 6.762145996
0.4566383362 36.70769882 6.823822021
1.299861908 36.36196136 7.501037598
-4.345657349 36.9832077 6.411071777
-1.568714142 35.67308426 8.832122803
-1.417850494 36.71363449 6.718688965
-2.366477966 36.61442566 6.902435303
-1.501514435 36.16176224 7.549835205
-3.184932709 37.11664963 6.239501953
-0.6245536804 37.25294113 6.129364014
-3.761852264 38.72953415 3.866027832
-2.609794617 36.02974701 7.882781982
-2.860355377 38.48768234 4.431121826
3.807952881 35.34102631 9.733673096
2.883148193 35.55633163 9.115814209
1.918384552 35.47714996 9.221130371
4.077507019 34.3432045 11.46246338
1.162666321 33.53436279 12.79171753
-0.9003295898 33.62237167 11.93234253
-2.089233398 33.07579803 12.39553833
0.3562927246 32.95962906 13.4357605
6.263343811 34.00941086 12.79589844
2.232429504 33.40520477 12.90249634
3.16330719 32.27994156 14.76098633
2.607685089 32.88957214 13.87240601
0.1402015686 33.50239944 12.4465332
-5.707553864 32.00285339 13.224823
-1.991725922 33.78028107 11.1880188
-3.177402496 33.94763184 10.80834961
-2.299091339 32.35489273 13.41729736
-1.653015137 34.54638672 10.47198486
-2.446659088 34.43543625 10.51339722
-4.204673767 34.13656616 10.17492676
-3.825927734 34.81381226 9.482696533
-1.581687927 38.16389847 5.130767822
-4.936145782 33.87478256 10.71392822
-4.55758667 32.01237106 13.58282471
-4.44178772 33.25260544 12.08551025
-6.24646759 33.49634552 11.00115967
-7.432365417 35.98867035 7.11819458
-6.511436462 34.17762375 10.21817017
-5.797561646 33.05706406 11.93395996
-6.82775116 32.18141937 12.84609985
-6.936084747 32.74472809 12.08215332
-7.406246185 33.65608597 10.63021851
-3.007686615 35.40488052 9.022491455
-6.239665985 35.15118027 9.207885742
-4.060005188 35.31201553 8.861480713
-3.137039185 34.54940414 9.955718994
-4.801315308 34.87740326 9.3671875
-6.165260315 36.01340485 7.711486816
-3.491821289 36.52970505 7.147247314
-6.583465576 36.50239182 6.684387207
-4.718513489 36.38051224 7.425506592
-5.121536255 40.14003372 1.529144287
-6.419342041 37.16366577 5.899536133
-5.567398071 36.77949142 6.596252441
0.4921150208 41.03453445 1.797302246
-8.316993713 38.86762619 2.943939209
-5.407764435 39.57304001 2.673248291
-7.060962677 39.50072861 2.719940186
-6.614776611 38.28629684 4.184417725
-5.593536377 38.30029297 4.458221436
-2.889472961 39.12711334 3.456726074
-7.342346191 37.43079758 5.413391113
-7.371765137 36.69344711 6.19631958
-6.450611115 37.81297302 4.98324585
-8.059055328 37.02233124 5.775909424
-8.261283875 37.59618378 5.101409912
-3.109588623 39.77346039 2.527038574
-4.207843781 39.88527679 2.134643555
-1.846126556 39.79749298 2.930023193
-1.779315948 39.00043869 3.998840332
-2.327983856 40.38431168 1.890899658
-1.215019226 40.53630066 2.074737549
-0.07030105591 38.25079346 5.242004395
-0.8397369385 39.51735306 3.516815186
-0.6620826721 38.92226791 4.407684326
-0.7862815857 40.0346489 2.753143311
1.536251068 39.0327301 4.120361328
2.194187164 37.28739548 6.491394043
2.163002014 40.43461609 2.399261475
0.9385108948 37.53504944 6.000793457
4.882293701 39.65854263 3.953277588
2.825077057 39.28198624 4.0390625
3.459453583 37.80463028 6.140045166
3.17811203 38.61504745 5.071350098
-0.05238342285 39.3964653 3.819488525
0.7884483337 39.52258682 3.513214111
1.868000031 39.75818253 3.268707275
0.9523048401 40.30734634 2.538757324
0.002487182617 39.89943314 3.072052002
2.602359772 40.98456573 1.617950439
4.45545578 41.445755 1.325256348
1.466064453 41.02427292 1.690979004
-14.63757324 38.26546097 2.832519531
-9.919364929 37.66885757 4.458618164
-12.35103226 38.29849625 2.757110596
-8.617713928 38.2085228 4.152374268
-9.774562836 38.37257767 3.147460938
-11.18160248 38.30990601 2.851074219
-10.42369843 38.87356567 1.959869385
-13.09718323 36.92848587 4.721801758
-10.97890091 37.76646805 3.875305176
-12.03513336 37.26012421 4.315551758
-13.02256393 37.55121231 3.540740967
-10.00260162 36.95212555 5.652557373
-13.06906509 36.56639099 5.686767578
-15.36532211 36.30283356 5.62677002
-17.54288864 37.37692261 4.009918213
-14.10411835 37.10987473 4.079833984
-15.03688431 37.65294266 3.514556885
-9.113563538 39.14848709 2.055633545
-12.84356689 27.52988052 19.0852356
-11.14662933 27.18971252 20.02890015
-11.69659042 26.47523689 21.07458496
-12.08236694 25.51300621 22.48733521
-9.236457825 25.56842232 22.26101685
-14.31018829 24.60174179 23.60690308
-12.72845078 25.9429493 21.34561157
-14.32354355 25.55383682 21.60122681
-14.72739792 25.96369171 20.98852539
-13.44456482 25.54414368 22.01858521
-13.35506821 26.81276703 19.94381714
-15.46149063 28.18212509 17.5526123
-14.57936478 26.53601837 19.99108887
-14.3695755 25.09163857 22.58529663
-13.98177719 27.20295334 19.0335083
-14.95739365 27.17346954 19.10992432
-16.4011879 24.8477726 22.36679077
-15.7417717 26.83526611 19.63134766
-13.35671616 25.10696793 23.56546021
-15.37333298 25.52637291 21.87283325
-15.3248291 24.56787682 23.15524292
-13.69284821 26.05314636 20.87191772
-16.81393814 23.24100494 23.57949829
-14.78514481 24.00731468 24.35202026
-14.0990181 24.68243027 24.5272522
-14.3114357 18.73971939 24.74349976
-15.50942612 23.27835655 25.54129028
-14.72742462 23.8230114 25.16049194
-11.02338028 25.38321686 23.26364136
-9.548069 24.34102249 24.26296997
-12.21510696 23.58345604 24.06387329
-11.8638649 25.13422012 24.36837769
-10.54713821 24.81769371 24.05044556
-8.88218689 22.56455231 24.20175171
-10.21525955 22.11968422 24.82400513
-14.98178864 17.98271179 24.65579224
-16.70698929 19.86918831 24.68545532
-12.60881805 9.545087814 25.97445679
-11.46852112 22.06627083 26.22927856
-15.94661331 17.23541832 24.32260132
-11.14700317 10.09793758 25.22140503
-12.74937057 12.54768467 24.07479858
-11.19153214 12.2006855 24.3812561
-12.31122589 13.26437855 24.25308228
-13.65185547 13.54702663 24.4805603
-14.44707108 16.9349823 24.81509399
-15.75459671 21.8663826 25.69967651
-15.79594803 20.64640045 24.83236694
-15.45143509 19.37501526 24.79898071
-13.83489227 8.19310379 25.42233276
-14.40534592 13.96352863 25.22793579
-16.16461563 11.94178391 24.83822632
-14.73215485 10.26825523 23.28140259
-14.89141846 3.109822035 24.02566528
-11.879879 7.290252686 24.16098022
-7.770225525 25.23165703 23.49246216
-13.42818069 9.233410835 23.93667603
-11.98846817 9.222848892 24.12667847
-10.13893509 27.28047943 19.71133423
-10.53557205 25.79034233 21.94857788
-5.376430511 27.0108757 20.5458374
-6.985561371 25.85923767 22.57333374
-1.722206116 24.9501915 24.80880737
-7.31268692 24.60525703 24.30606079
-7.526802063 26.28370285 21.66146851
-10.23277664 13.80962276 25.47317505
-10.15334702 11.69419956 24.73703003
-4.591835022 27.72077751 19.72784424
-5.784263611 25.6944046 22.48257446
-8.197635651 25.85549355 22.62124634
-10.32611084 26.64448929 20.70355225
-8.214530945 26.6786232 20.81304932
-8.469753265 26.06885338 21.69271851
-7.549819946 27.43859673 20.18441772
-9.313648224 26.2048645 21.23260498
-10.21959686 27.76833916 18.97772217
-9.258003235 26.93888092 20.25500488
1.450393677 28.09988594 20.39407349
-3.435035706 27.70277596 20.06262207
-3.025794983 27.24874687 20.90063477
4.102809906 26.09138107 23.55709839
5.509895325 26.86573982 22.26925659
0.4633331299 27.47737694 21.28704834
-1.262134552 27.62467003 20.96994019
-2.400363922 27.72276306 20.43225098
1.90265274 26.76688957 21.95822144
-6.314899445 26.46657753 21.44992065
-2.862960815 26.71493149 21.74905396
-4.809261322 25.64948845 22.59396362
-1.497489929 26.74988365 22.01663208
-3.815731049 26.03744888 22.35848999
-1.101833344 26.04192352 23.10720825
-6.483654022 25.03245926 23.39022827
6.297641754 23.80832863 27.28274536
5.150608063 25.7126503 24.37197876
-5.89422226 24.62047768 24.54324341
-4.373092651 24.86023712 24.22872925
-4.286434174 25.34326935 23.17398071
-3.334041595 25.49865341 23.53030396
-10.07177353 24.94056892 22.85610962
-6.886417389 23.83823204 24.99850464
-8.470661163 24.78861237 24.24655151
-7.39679718 22.20725822 26.11819458
-11.11642456 14.24708652 24.80355835
-10.03373718 20.86081886 26.76412964
-12.55857468 19.09510422 25.49459839
-9.472007751 21.25571442 25.14352417
-10.59398651 21.16767311 25.82553101
-8.200592041 24.02030373 24.87539673
-4.564216614 23.76754189 26.31399536
-6.860561371 23.27879715 26.28262329
-4.940853119 24.35116959 25.25918579
-1.391857147 23.5635643 26.63766479
-1.467399597 24.25022125 25.66500854
-2.629436493 24.20193863 25.28939819
-7.431453705 21.28081131 26.48074341
-3.845336914 24.13539505 25.16189575
-7.933925629 20.68953896 26.19216919
1.231796265 24.80135155 25.59158325
2.294322968 24.36460686 26.52981567
-9.697063446 19.60324097 26.66610718
-11.56423187 20.21323204 25.7897644
-10.6829071 19.33404922 26.56161499
-10.11631393 17.02350044 26.4102478
-10.68191528 16.08520699 26.21060181
-10.0772438 12.19860649 25.38296509
-11.01819611 13.34405231 26.88754272
-11.80643082 10.13813019 26.06015015
-13.5753746 9.272819519 26.11129761
-11.92368317 16.76202393 25.52957153
-11.20218277 17.76737785 25.97640991
-13.63753128 14.42400455 25.07571411
-14.2075882 20.74932098 25.98641968
-13.07183838 21.49447441 26.2727356
-14.37447739 20.0599556 24.88101196
-12.52457047 18.09660149 25.73806763
-11.54553223 19.11697578 26.2618103
-15.08687592 20.85532188 25.6121521
-13.42767334 15.1176672 25.2807312
-15.56655502 6.422716141 25.67953491
-16.95988846 11.48027992 24.70413208
-13.83144379 15.88765049 25.09622192
-13.13992691 16.89431953 25.23464966
-12.64634705 14.62652493 24.78469849
-16.35513687 8.638196945 29.84719849
-11.62459946 8.07461071 47.66531372
-14.61005783 9.264274597 45.88955688
-15.8683815 9.118926048 45.89993286
-13.36977386 8.680096626 30.94393921
-15.32684708 9.973194122 27.48007202
-16.19692612 7.634809494 26.4624939
-16.31613541 9.064336777 27.39675903
-13.10009766 -1.234369755 27.25485229
-13.83416748 7.035599709 24.72793579
-15.32959366 5.553275108 25.31149292
-11.82161331 -0.6948204041 28.34902954
-13.31547546 -0.1918401718 29.54049683
-14.29917526 6.899175644 21.81613159
-15.21350098 2.076379061 23.77536011
-15.5977478 -7.724673271 24.27127075
-15.88833237 -2.575872421 25.03811646
-14.84782028 6.275408745 31.42849731
-15.84570694 4.86038208 25.17300415
-14.60125351 -1.504161596 26.34280396
-15.27440262 7.177783966 30.99893188
-14.64458847 1.357445955 29.29928589
-16.79456711 -0.7238149643 26.1993103
-16.34755325 0.4751675129 27.54373169
-14.52301407 7.725860596 30.79745483
-15.67795181 7.18603611 33.13363647
-14.51700974 7.622882843 31.71835327
-14.18486023 9.233576775 31.90328979
-12.50209808 -7.012144089 27.65512085
-13.22594833 -6.512758255 27.08163452
-13.89337158 10.66657639 45.38565063
-12.07226944 0.428194046 32.65402222
-12.8356781 1.419471025 33.19827271
-11.29785919 -3.385764122 26.30722046
-11.66169357 9.25736618 46.18081665
-14.7924118 6.937856674 49.18423462
-14.09973526 -2.462459564 25.80429077
-10.54502106 -4.375469685 26.12466431
-13.37043762 -4.812486172 24.478302
-12.77784729 1.50146699 21.38870239
-13.0161171 0.7886483669 20.18591309
-11.73664093 8.332133293 24.42288208
-12.66341019 6.053502083 23.34335327
-14.64534378 6.034963608 24.8742981
-14.89632797 4.895241737 24.81130981
-14.84807587 7.397968292 25.52731323
-10.0033989 -0.5688114166 33.49545288
-11.81245422 0.9439146519 34.177948
-14.03659821 8.410985947 30.33480835
-12.72016907 8.685493469 25.41824341
-14.13257599 9.233130455 30.29537964
-14.90183258 8.7973032 26.39065552
-7.753894806 9.364480972 46.93258667
-12.01227188 0.4264075756 36.33889771
-11.04253006 -0.07238912582 33.35458374
-9.679172516 -1.354867458 30.14694214
-8.442577362 -2.269508839 31.61325073
-9.795280457 8.489104271 47.2961731
-10.55656815 7.926688194 48.06674194
-8.60345459 -3.682435513 37.16647339
-10.25017166 -2.451934338 38.23886108
-10.16412735 -4.568367958 39.09371948
-11.23459625 -3.479632139 39.05508423
-11.52038193 -4.788396358 39.47238159
-10.5271225 -8.262022018 39.61447144
-10.66054535 -5.867718697 39.37466431
-12.31842804 -1.658527732 38.33120728
-8.107097626 -2.345607758 33.00662231
-8.232288361 -2.888538361 35.78079224
-10.1527977 -7.028136253 38.79013062
-9.287036896 -5.615376472 38.46578979
-9.133323669 -8.483036041 37.4961853
-9.627590179 6.261305809 50.92086792
-9.056118011 -3.073324442 37.99331665
-9.112102509 -4.26548481 38.29312134
-3.604320526 5.975621223 52.12954712
-9.557098389 -9.098546982 36.94967651
-14.57892609 5.574543953 51.13766479
-7.538646698 -5.497877598 36.76370239
-8.969814301 -1.708187938 37.02261353
-3.413284302 9.63304615 47.08102417
-8.222408295 -1.994423747 34.54946899
-9.418590546 -0.3560023308 34.50454712
-8.739379883 -0.9681017399 35.0774231
-7.603847504 -2.969328642 34.2026062
-8.480113983 -1.74164772 35.60861206
-7.102443695 -4.930251122 35.64151001
-7.134128571 -5.368157864 33.99227905
-7.367149353 -3.923004389 35.04598999
-6.751312256 -4.503926277 33.2850647
-6.753025055 -5.604305744 35.18606567
-7.021408081 -5.073390484 32.58218384
-7.795715332 -4.267868519 36.35171509
-7.696487427 -5.016955376 31.65322876
-6.993301392 -6.355554581 36.46524048
-6.831150055 -4.636450768 34.52505493
-7.749305725 -7.769874573 33.32351685
-6.860980988 -4.602585316 31.19955444
4.853572845 13.5081625 42.63589478
-6.84860611 -4.20015049 32.2015686
-9.092948914 -3.531561136 27.97525024
-8.827362061 -2.46085 28.68850708
-7.002521515 -3.825440884 33.81826782
-6.814495087 -3.779170036 32.90890503
1.043087006 8.946998596 48.40646362
-7.239234924 -3.121868134 33.00546265
-8.671211243 -3.085236311 29.64364624
-9.217887878 -1.73276782 29.11734009
-8.814849854 -2.533438444 29.72079468
-7.57938385 -3.888545036 30.30587769
-9.563335419 -4.801555157 28.26870728
3.741786957 17.06540871 36.86495972
-6.884765625 -3.82622695 31.35501099
-8.106098175 -7.882206917 31.7359314
-8.42779541 -5.791459084 30.01846313
19.38702583 11.07048798 47.76675415
-8.141944885 -5.847078323 31.15060425
-7.813259125 -5.019691467 30.54873657
-8.625259399 -7.761673927 30.88076782
-9.090209961 -4.301377296 29.66970825
-9.984653473 -5.832522392 28.17575073
-9.539779663 -5.539865971 29.09628296
-10.14188766 -5.096040249 26.5027771
-11.34832382 -3.821618557 27.58016968
-11.29459 -4.296025276 25.60195923
-12.28765869 -3.509658098 25.92276001
-11.90616989 -1.237997055 27.47323608
-11.94524002 -2.711343765 26.44058228
