# .PCD v0.7 - Point Cloud Data file format
VERSION 0.7
FIELDS x y z
SIZE 4 4 4
TYPE F F F
COUNT 1 1 1
WIDTH 1461
HEIGHT 1
VIEWPOINT 0 0 0 1 0 0 0
POINTS 1461
DATA ascii
-0.08604965 -0.01493732 0.7538303
-0.04764923 -0.001994465 0.8011957
-0.047514 -0.004274064 0.8042873
-0.04329247 0.01924474 0.7715486
-0.04369648 0.01649951 0.7755665
-0.04238844 0.01244379 0.7815792
-0.04875021 0.01755634 0.7728976
-0.04978401 0.01807384 0.7719767
-0.05100207 0.02044136 0.7688047
-0.04224749 0.02055413 0.7696039
-0.04576423 0.01920648 0.7710078
-0.05660617 0.02000167 0.7683992
-0.06004061 0.02059479 0.7680338
-0.05645542 0.0224217 0.7661156
-0.04818293 0.02434806 0.762982
-0.04839482 0.02133773 0.7686404
-0.0608458 0.02235562 0.7661965
-0.06365941 0.02200786 0.7653636
-0.06461447 0.02490513 0.7601696
-0.04210127 0.03177525 0.7534761
-0.04369054 0.03088963 0.7543469
-0.054825 0.02531051 0.7611597
-0.0533514 0.02536672 0.7612403
-0.0550306 0.02311455 0.7656304
-0.04114969 0.02351627 0.7663099
-0.04117025 0.02599917 0.7626733
-0.04530644 0.02483356 0.7636934
-0.04218857 0.0247361 0.7654572
-0.05104834 0.02231816 0.7686442
-0.04247242 0.02585841 0.7625375
-0.04401001 0.03695248 0.7456021
-0.04934262 0.03915411 0.741743
-0.04938063 0.03174237 0.7523124
-0.04843794 0.03470878 0.7482455
-0.05348936 0.03356887 0.7490966
-0.05874633 0.04019833 0.738422
-0.05330912 0.03800089 0.7423064
-0.06479213 0.03813196 0.7410907
-0.05950983 0.03828964 0.7410036
-0.0614781 0.03663478 0.7433923
-0.05669851 0.03599664 0.7447098
-0.05929011 0.03624221 0.7443333
-0.06846111 0.02895799 0.7535427
-0.04684195 0.03804209 0.7427948
-0.04573168 0.03984574 0.7401167
-0.04631716 0.03909795 0.7415009
-0.04403866 0.03882495 0.7426057
-0.04859472 0.03543821 0.7470767
-0.05780028 0.03399203 0.7475595
-0.07008781 0.03196024 0.749032
-0.0562789 0.0333932 0.749331
-0.06508648 0.03370308 0.74736
-0.05866311 0.03482879 0.7464656
-0.05237104 0.03327487 0.7498911
-0.07868522 -0.003136796 0.7523525
-0.05993364 0.02941824 0.7544529
-0.06256852 0.02868858 0.7549715
-0.05367717 0.03079246 0.7533119
-0.04896876 0.0338049 0.7493047
-0.04590163 0.03658507 0.7459026
-0.04411608 0.02984655 0.7556742
-0.05482515 0.06434703 0.7044726
-0.06173657 0.05467567 0.7168643
-0.05312505 0.05602469 0.7167931
-0.05449142 0.06053474 0.7094113
-0.06868207 0.05368138 0.7172517
-0.06837836 0.05681191 0.712058
-0.06559379 0.05663903 0.7126446
-0.05800127 0.05762547 0.7129473
-0.05289387 0.06292931 0.7061088
-0.06048938 0.06304747 0.7045907
-0.04735667 0.03595846 0.7463063
-0.04819446 0.04484069 0.7329521
-0.04912252 0.04608171 0.7306274
-0.06664153 0.04210213 0.7346519
-0.05979161 0.04219084 0.7349977
-0.05954408 0.04538927 0.7315699
-0.06127907 0.04255689 0.7340977
-0.05698711 0.04110332 0.736995
-0.05972305 0.04157334 0.7363074
-0.06277038 0.04617023 0.7292845
-0.05204089 0.05223903 0.7219325
-0.06202864 0.05376387 0.7179728
-0.06633673 0.05353205 0.718031
-0.06888746 0.05014206 0.7222089
-0.05920844 0.0491298 0.7255095
-0.05592448 0.04878998 0.7260481
-0.05067025 -0.009429596 0.8116959
-0.08369096 -0.0164926 0.8169918
-0.0824999 -0.02179022 0.8249876
-0.08807906 -0.02235963 0.8241036
-0.08717748 -0.02143948 0.8233363
-0.0864251 -0.0169975 0.8174888
-0.1086902 -0.02118004 0.7629845
-0.08893056 -0.01790508 0.8179492
-0.07749796 -0.01411415 0.8139253
-0.06842943 -0.0121281 0.813145
-0.09143919 -0.01359422 0.7561775
-0.08487333 -0.01719487 0.8180391
-0.06795353 -0.01554867 0.8182793
-0.0868493 -0.01842793 0.8193792
-0.08633357 -0.01976261 0.8213965
-0.1035406 -0.01996857 0.8187122
-0.1188953 -0.04176064 0.7404689
-0.1654184 -0.0282909 0.8218633
-0.160278 -0.03178783 0.8275918
-0.1608505 -0.03300807 0.8283083
-0.1234559 -0.01092117 0.7930589
-0.1984052 -0.0114484 0.7915921
-0.1971166 -0.01265153 0.7936741
-0.1864509 -0.01932608 0.8047361
-0.1607691 -0.02365678 0.8148798
-0.1728417 -0.0238979 0.8135787
-0.1684895 -0.02364671 0.8144883
-0.1666837 -0.02231092 0.8129619
-0.1777856 -0.02593702 0.8169208
-0.1758092 -0.02385099 0.8136829
-0.1757451 -0.02323675 0.8126025
-0.1712225 -0.02243408 0.8119492
-0.1697454 -0.01972695 0.8080221
-0.1709399 -0.02013945 0.8085341
-0.1778301 -0.02196611 0.8110068
-0.1808662 -0.02223053 0.8099895
-0.1773656 -0.02093102 0.8095936
-0.1613905 -0.02268652 0.8135148
-0.166829 -0.02121347 0.8118976
-0.182573 -0.02483794 0.8143319
-0.1666611 -0.02348875 0.8143734
-0.1769904 -0.02414449 0.8141223
-0.1633201 -0.02381003 0.8152569
-0.1691935 -0.0227693 0.8133416
-0.1711647 -0.02167408 0.8107987
-0.1638475 -0.02315687 0.8139286
-0.1748971 -0.0226141 0.8115028
-0.1745085 -0.02355213 0.8129467
-0.1732652 -0.02308468 0.8120312
-0.1720583 -0.02310784 0.8123982
-0.1615011 -0.02081058 0.8113466
-0.1658446 -0.02081716 0.8114387
-0.1579538 -0.02052506 0.8120695
-0.1576854 -0.02138133 0.8134407
-0.1589787 -0.02149558 0.8130279
-0.1595399 -0.0227211 0.8140991
-0.1520735 -0.02173341 0.8136088
-0.1749823 -0.02644737 0.817575
-0.1681295 -0.02077461 0.8108869
-0.157144 -0.01958999 0.8106307
-0.1625484 -0.01996367 0.8101472
-0.1699548 -0.0207704 0.8097774
-0.1656498 -0.02002777 0.8106586
-0.1701885 -0.02578721 0.8168237
-0.1549805 -0.02171983 0.813701
-0.16466 -0.02074327 0.8114119
-0.169838 -0.02185148 0.8118206
-0.172254 -0.02170645 0.8102968
-0.1631475 -0.02074883 0.8113225
-0.1885206 -0.02390695 0.8120754
-0.1642149 -0.01985349 0.8103879
-0.1637695 -0.01913075 0.8089983
-0.1881402 -0.02294721 0.8109545
-0.1919865 -0.0247322 0.8121676
-0.184747 -0.02626676 0.8159369
-0.1831094 -0.02250248 0.8102999
-0.191004 -0.02180339 0.807946
-0.1890429 -0.02184001 0.8078136
-0.1618876 -0.024142 0.8157174
-0.1868002 -0.02250521 0.8103126
-0.1782389 -0.02415156 0.8136649
-0.1795759 -0.02263037 0.8113366
-0.1850663 -0.02136023 0.808423
-0.1820128 -0.02145217 0.8089507
-0.1768211 -0.02034661 0.8083231
-0.171598 -0.02091223 0.8095048
-0.1731428 -0.02096644 0.809386
-0.1807625 -0.01910961 0.8065645
-0.1756512 -0.01979385 0.8079342
-0.1695517 -0.0163069 0.8029559
-0.1827093 -0.02049365 0.8080953
-0.1852444 -0.0238639 0.8127115
-0.1790432 -0.02140466 0.8098417
-0.1803006 -0.02087445 0.808517
-0.166904 -0.0199266 0.8098981
-0.1669338 -0.01936118 0.8083297
-0.1808026 -0.02000172 0.8075472
-0.1614817 -0.01688415 0.8056865
-0.1851297 -0.02278793 0.8112473
-0.1796372 -0.01969954 0.8071411
-0.1815221 -0.0205225 0.8081339
-0.1851141 -0.0220264 0.8096559
-0.1836931 -0.02134743 0.8089278
-0.1745216 -0.02040614 0.8086853
-0.1918665 -0.02686671 0.8143773
-0.1873239 -0.02829979 0.8174853
-0.1666265 -0.02782933 0.8208605
-0.1924722 -0.0302707 0.8193517
-0.1950338 -0.02816463 0.817332
-0.194464 -0.03142472 0.8230859
-0.164179 -0.02448072 0.8162947
-0.1563054 -0.02325131 0.8160309
-0.1677054 -0.02469829 0.8155875
-0.1574963 -0.02411744 0.816516
-0.1699136 -0.0237357 0.8142931
-0.1777627 -0.02487895 0.815308
-0.1760669 -0.0246661 0.814859
-0.1506083 -0.01967197 0.8110064
-0.1709422 -0.02308903 0.8132383
-0.180157 -0.02731377 0.8181008
-0.1687303 -0.02570691 0.816743
-0.1745768 -0.02434944 0.8143581
-0.1876946 -0.03681999 0.8305469
-0.1800346 -0.0239803 0.8129373
-0.1778006 -0.02682294 0.8182701
-0.1964608 -0.02258067 0.8101194
-0.1824633 -0.03428505 0.8276149
-0.1761166 -0.02553496 0.8163788
-0.174937 -0.02505936 0.8155149
-0.1795633 -0.02486435 0.8146514
-0.1792632 -0.02569368 0.8161395
-0.1807237 -0.02566555 0.8155662
-0.1500142 -0.0187257 0.8098243
-0.1696776 -0.02473176 0.8156207
-0.1628293 -0.02444459 0.8164375
-0.1533941 -0.03213081 0.8288424
-0.1790612 -0.02665511 0.8174658
-0.1911616 -0.02892434 0.8173947
-0.1815995 -0.02635809 0.8162189
-0.1891233 -0.03096464 0.8211687
-0.1851253 -0.03260798 0.8242929
-0.1765163 -0.03493452 0.8296439
-0.1753319 -0.03078578 0.8233694
-0.1760645 -0.02891088 0.8213103
-0.1697803 -0.02636014 0.8179043
-0.172348 -0.02691451 0.8188953
-0.1591301 -0.02722645 0.8204746
-0.1651685 -0.0275147 0.8203519
-0.1798198 -0.02794738 0.8192012
-0.1846431 -0.02988404 0.820824
-0.1602169 -0.02548873 0.81791
-0.155567 -0.03359326 0.8309166
-0.1700546 -0.03224937 0.8267689
-0.1710543 -0.03161728 0.8254688
-0.1575481 -0.02686028 0.8200724
-0.1635252 -0.0267431 0.8191875
-0.1713024 -0.02636372 0.8176691
-0.163152 -0.02520384 0.8176707
-0.161603 -0.02597196 0.8186119
-0.1599564 -0.02641236 0.8192412
-0.162973 -0.02813972 0.8214332
-0.15966 -0.02915101 0.8241069
-0.1608756 -0.0301084 0.8248582
-0.1611872 -0.02712683 0.8202192
-0.1560495 -0.02605519 0.819396
-0.1548883 -0.026812 0.8208165
-0.1543526 -0.02792468 0.8224188
-0.1563438 -0.02698851 0.8207967
-0.157565 -0.02772985 0.8216909
-0.1576356 -0.03182312 0.8286164
-0.1473501 -0.02757441 0.8235449
-0.1562264 -0.02838878 0.822962
-0.1469877 -0.0259839 0.8208669
-0.1505919 -0.02553265 0.8206732
-0.1538937 -0.02569101 0.8192789
-0.1531053 -0.02675169 0.8210835
-0.1483394 -0.02605531 0.8208798
-0.1586721 -0.02513185 0.8173066
-0.1539618 -0.02452692 0.8178473
-0.1366664 -0.02507878 0.8213569
-0.1444695 -0.02433299 0.8186072
-0.144285 -0.02536119 0.8200085
-0.149055 -0.02733739 0.823309
-0.1473389 -0.02410322 0.818698
-0.1483491 -0.0296156 0.8258777
-0.1478717 -0.02667372 0.8221103
-0.1507135 -0.02735723 0.8229916
-0.1459914 -0.02676083 0.8221077
-0.1397462 -0.02890444 0.8258934
-0.1408974 -0.02821432 0.8249551
-0.1444212 -0.02829355 0.8248827
-0.1431595 -0.02607195 0.8210214
-0.1415984 -0.018889 0.8115895
-0.1566266 -0.02213313 0.8145095
-0.1506276 -0.02479309 0.8192096
-0.1577606 -0.02607879 0.8186969
-0.1552992 -0.02479014 0.8181684
-0.156899 -0.02506104 0.8178753
-0.1466473 -0.02329438 0.8174066
-0.1523115 -0.02468023 0.8180354
-0.1578804 -0.02298351 0.8152178
-0.1561827 -0.02416829 0.8171303
-0.1549698 -0.02375854 0.8169934
-0.1458969 -0.02414146 0.818587
-0.1493212 -0.02320333 0.8173804
-0.1520359 -0.02363116 0.8164015
-0.1508396 -0.02298795 0.8158826
-0.1458805 -0.02236604 0.8162125
-0.1474461 -0.02228036 0.8163009
-0.1490454 -0.02405668 0.8187415
-0.1498748 -0.0229752 0.8164994
-0.1523945 -0.02762912 0.8226648
-0.1481127 -0.02321839 0.8175073
-0.1427852 -0.02142115 0.8145363
-0.1435528 -0.02231795 0.8157995
-0.1534241 -0.0223129 0.8144767
-0.1520375 -0.02274893 0.8150637
-0.1507645 -0.02219636 0.8145992
-0.1535826 -0.0216502 0.8132576
-0.1666884 -0.0205077 0.8109663
-0.1849654 -0.0189772 0.8049465
-0.1513301 -0.02069787 0.8122349
-0.1529571 -0.01476164 0.8034626
-0.1563388 -0.02046818 0.8117333
-0.1467932 -0.01618184 0.8065566
-0.1503367 -0.02126876 0.813421
-0.158884 -0.01646542 0.8055588
-0.143251 -0.02024556 0.750334
-0.1227299 -0.04242343 0.7393801
-0.1405789 -0.01991367 0.7493346
-0.1472011 -0.01965206 0.7565101
-0.1449922 -0.02027849 0.7510577
-0.144091 -0.01994614 0.7497203
-0.1479624 -0.0195245 0.7497358
-0.1468408 -0.01916319 0.7489651
-0.1303695 -0.01935649 0.7482924
-0.1468233 -0.02020495 0.8129569
-0.1589228 -0.01974191 0.8104262
-0.1451999 -0.01877281 0.8113905
-0.1514523 -0.0189499 0.8099204
-0.1484709 -0.02184976 0.8151082
-0.1469518 -0.01911583 0.811428
-0.1476365 -0.0182723 0.8099639
-0.146114 -0.01809807 0.8102354
-0.1443575 -0.01963131 0.8122261
-0.1495867 -0.0216869 0.81442
-0.1406407 -0.02430817 0.8191786
-0.1488231 -0.02266986 0.8163375
-0.1466776 -0.0212876 0.8147295
-0.1581688 -0.02205397 0.8141519
-0.1497225 -0.0224295 0.8154266
-0.1505819 -0.02374519 0.8174616
-0.1451671 -0.0234487 0.8172888
-0.1534972 -0.0236898 0.8167849
-0.1531373 -0.02312328 0.8156129
-0.1445787 -0.0227209 0.8162228
-0.1415802 -0.02340571 0.817688
-0.143472 -0.02334633 0.8172153
-0.1452715 -0.02988646 0.8267526
-0.1496145 -0.02629729 0.8217726
-0.1352441 -0.0200625 0.8136592
-0.1421193 -0.02248333 0.8161066
-0.1425588 -0.01804124 0.810088
-0.1391852 -0.02097937 0.8146402
-0.1333705 -0.03018519 0.8285942
-0.1382617 -0.02660958 0.8231173
-0.1496969 -0.03064281 0.8268836
-0.1435672 -0.02788047 0.823787
-0.1359855 -0.02784309 0.8254486
-0.1497948 -0.02946432 0.8253726
-0.1441645 -0.02898775 0.8259059
-0.1436308 -0.03016062 0.8268644
-0.1454587 -0.02791383 0.8238655
-0.1501355 -0.02838056 0.8242139
-0.1541091 -0.02983029 0.8250579
-0.1550161 -0.0289897 0.8240027
-0.1486362 -0.02845716 0.8245819
-0.1581221 -0.02932435 0.8247563
-0.1543934 -0.03129984 0.8275408
-0.1555219 -0.03219311 0.8290714
-0.1639157 -0.02911473 0.8231995
-0.1558446 -0.02753439 0.8217949
-0.1580444 -0.02853011 0.8234693
-0.1600318 -0.02809362 0.8221903
-0.1647025 -0.03016534 0.824437
-0.1616624 -0.02924716 0.823322
-0.1695286 -0.03123226 0.8254226
-0.1689376 -0.03035684 0.8243136
-0.1706011 -0.03061823 0.8243467
-0.1661439 -0.02928812 0.823172
-0.1627012 -0.03019509 0.8244274
-0.1681141 -0.03094978 0.8253583
-0.1759023 -0.03198548 0.8252236
-0.1634833 -0.03106359 0.8255261
-0.1831173 -0.0335521 0.8263085
-0.1734789 -0.03145143 0.8247201
-0.1618408 -0.03109588 0.825575
-0.1617047 -0.03250659 0.8274016
-0.1683699 -0.03171169 0.8264894
-0.1804213 -0.03451363 0.8291579
-0.1816604 -0.03608676 0.8310062
-0.182504 -0.03580254 0.8297964
-0.1555926 -0.02975635 0.8251043
-0.1613304 -0.03167702 0.826614
-0.1651471 -0.03379008 0.8293426
-0.1566704 -0.02920607 0.8243845
-0.1551534 -0.03053495 0.8261611
-0.1563843 -0.03105327 0.8274456
-0.1591469 -0.02986421 0.8256537
-0.1590592 -0.03177021 0.8283687
-0.1464883 -0.03074612 0.8276792
-0.1476192 -0.03157466 0.8286024
-0.151221 -0.03128789 0.8271266
-0.1625602 -0.03190229 0.8264772
-0.1448302 -0.0310958 0.8280845
-0.1522027 -0.03297343 0.8304231
-0.1598456 -0.03248237 0.8286034
-0.1652412 -0.03107989 0.8257177
-0.1640757 -0.03187171 0.8266869
-0.1739253 -0.03223469 0.8259459
-0.1691164 -0.03372218 0.8290529
-0.1668664 -0.03128859 0.8261123
-0.1749073 -0.0339651 0.8283972
-0.1745 -0.03309625 0.8271514
-0.1788457 -0.03434341 0.829143
-0.1707634 -0.03393309 0.8288173
-0.1728512 -0.03286015 0.8270559
-0.1656095 -0.03187537 0.8270382
-0.1573819 -0.03316454 0.8299422
-0.1480352 -0.03058003 0.8273467
-0.1516449 -0.03218122 0.8284805
-0.1490837 -0.03159251 0.8283588
-0.1485303 -0.03240189 0.8295792
-0.1439474 -0.03180049 0.8294201
-0.1431917 -0.02819286 0.8251517
-0.139372 -0.03036283 0.8285872
-0.1429195 -0.03109709 0.8280993
-0.1453093 -0.03185014 0.8293904
-0.1419846 -0.02994865 0.8271541
-0.133984 -0.02939136 0.8271403
-0.1455736 -0.0287938 0.8255379
-0.1470601 -0.0286235 0.824989
-0.1503429 -0.03181759 0.8279987
-0.1468061 -0.03313506 0.8304952
-0.1421743 -0.03176394 0.8294281
-0.1504467 -0.03351696 0.8311407
-0.1383834 -0.03126056 0.8298363
-0.1765584 -0.03733649 0.833317
-0.1753479 -0.03742757 0.8335093
-0.1833326 -0.03836464 0.8331701
-0.1898941 -0.03940173 0.8345308
-0.1674681 -0.03569675 0.8318166
-0.1802489 -0.03830224 0.8342046
-0.1642652 -0.03587382 0.8323752
-0.1736291 -0.03464154 0.8293931
-0.1723528 -0.03389088 0.8284018
-0.1824294 -0.03724776 0.8320715
-0.1742096 -0.0372797 0.8331552
-0.1730223 -0.03710531 0.8330017
-0.1601041 -0.03346418 0.8292861
-0.16246 -0.03510465 0.8309413
-0.1736607 -0.03643193 0.8320549
-0.1753519 -0.036651 0.8321975
-0.1727907 -0.0356064 0.8309019
-0.1771221 -0.03664462 0.8318765
-0.1818098 -0.0348562 0.8288777
-0.1946691 -0.03625227 0.8290049
-0.1780921 -0.03743114 0.833153
-0.1843845 -0.03774217 0.8319194
-0.185769 -0.03739531 0.8314793
-0.1863674 -0.03688274 0.8306112
-0.1848955 -0.03691269 0.8306449
-0.1736697 -0.03370922 0.8280358
-0.1840459 -0.03456102 0.8273228
-0.1760868 -0.03583964 0.8306531
-0.1778053 -0.03552595 0.8303324
-0.1810703 -0.0338533 0.8279058
-0.17962 -0.03364152 0.8278642
-0.1710691 -0.03563412 0.8312542
-0.1621137 -0.03358392 0.8282304
-0.1744756 -0.0356064 0.8308299
-0.1490472 -0.03317172 0.8307295
-0.1537835 -0.03355619 0.8312322
-0.1540877 -0.03276649 0.8301403
-0.1479071 -0.03304194 0.8303483
-0.1217511 -0.03061205 0.7366017
-0.1216726 -0.02994426 0.7348728
-0.1210477 -0.03092277 0.7580293
-0.1209566 -0.03217896 0.7604474
-0.11923 -0.02939022 0.7626179
-0.1216157 -0.0308506 0.7636626
-0.1223451 -0.03187329 0.7608297
-0.124256 -0.03503238 0.7383637
-0.1237001 -0.02935543 0.7571665
-0.1230745 -0.02945274 0.7557575
-0.1396916 -0.01236376 0.7376056
-0.1393978 -0.007653414 0.7277022
-0.1389397 -0.009676386 0.7251068
-0.122615 -0.03087303 0.7350267
-0.1151148 -0.02354265 0.7596788
-0.1189017 -0.02930806 0.7599591
-0.1205463 -0.02863338 0.7568477
-0.1217715 -0.02918354 0.755846
-0.1201148 -0.02967738 0.7354781
-0.120658 -0.02967198 0.7341235
-0.125203 -0.0253349 0.7584416
-0.1214487 -0.03483229 0.7346177
-0.1211795 -0.03734723 0.7316563
-0.1243793 -0.02925253 0.7656831
-0.1245549 -0.02358634 0.7588294
-0.1231152 -0.02333725 0.7586759
-0.1214596 -0.02797551 0.7562321
-0.1227879 -0.02739447 0.7570872
-0.122729 -0.02793199 0.7555691
-0.1238189 -0.02631279 0.7571483
-0.1122405 -0.01847416 0.760887
-0.1120433 -0.01842886 0.7584268
-0.1322549 -0.01888016 0.7484885
-0.1266189 -0.0228454 0.7670274
-0.1195225 -0.03242043 0.7320135
-0.1205901 -0.02969327 0.7570347
-0.1212134 -0.02756047 0.7575625
-0.1308446 -0.01706308 0.7531207
-0.1192724 -0.03020843 0.7367604
-0.1195169 -0.0301223 0.7585105
-0.1195218 -0.02803613 0.7630197
-0.1201538 -0.02629711 0.7589241
-0.1200668 -0.03162594 0.7593263
-0.1196318 -0.02373025 0.7614796
-0.1194679 -0.02731057 0.7598838
-0.1164343 -0.03158645 0.7346862
-0.1354435 -0.01077099 0.7226946
-0.1198886 -0.03398361 0.7320411
-0.1177887 -0.03086491 0.7364194
-0.1216241 -0.03013802 0.7647793
-0.1196143 -0.03167213 0.7611195
-0.1099745 -0.02853737 0.7554467
-0.110551 -0.03136797 0.7488523
-0.1203543 -0.02837234 0.7655265
-0.1205651 -0.02960168 0.7649057
-0.1203719 -0.02716875 0.7668773
-0.1093326 -0.03189287 0.749472
-0.1210176 -0.02646952 0.7708773
-0.1219018 -0.02300083 0.7605767
-0.1201193 -0.0266392 0.7652504
-0.1209034 -0.0276099 0.7684712
-0.1200845 -0.02504374 0.7692488
-0.1272381 -0.02267618 0.7666667
-0.1261744 -0.02286303 0.7677974
-0.1343374 -0.02281886 0.8183035
-0.1217899 -0.02723076 0.7697713
-0.1212573 -0.0294976 0.7657279
-0.1224129 -0.02804934 0.7686068
-0.14125 -0.02892459 0.8262005
-0.132946 -0.02858203 0.8261734
-0.142022 -0.02833986 0.8253945
-0.1348874 -0.02718829 0.8246971
-0.1403333 -0.02972831 0.827238
-0.132307 -0.02787176 0.8253166
-0.1394387 -0.02578856 0.8217945
-0.1353451 -0.02525567 0.8220131
-0.1300073 -0.02773151 0.824941
-0.1320566 -0.02952057 0.8275993
-0.1374699 -0.0302849 0.828563
-0.1236709 -0.0334714 0.7405884
-0.1318233 -0.03028123 0.8292242
-0.1198312 -0.03269079 0.7409206
-0.1370212 -0.02933002 0.8270974
-0.1312868 -0.02851062 0.8261033
-0.128742 -0.02824381 0.8256907
-0.1304974 -0.02995251 0.8287293
-0.1325098 -0.02483186 0.821964
-0.1273182 -0.02804873 0.8257399
-0.1243304 -0.02850615 0.826447
-0.1252405 -0.02887173 0.8271725
-0.1208076 -0.02633131 0.824578
-0.1262223 -0.02745115 0.8251715
-0.1265391 -0.0288471 0.8272253
-0.1231332 -0.02470979 0.8217199
-0.1213493 -0.02746213 0.825497
-0.1224674 -0.02663234 0.7709372
-0.1216437 -0.02595918 0.7721552
-0.1200912 -0.04533427 0.7372134
-0.1191678 -0.04328746 0.7421696
-0.129147 -0.02958659 0.8280554
-0.123984 -0.02921126 0.8277306
-0.115366 -0.02727587 0.8275013
-0.1296679 -0.02878444 0.8265052
-0.1305382 -0.02921808 0.8274546
-0.1271388 -0.03000168 0.8286047
-0.1237572 -0.03401672 0.7389494
-0.1191754 -0.02628883 0.825061
-0.1198928 -0.03521472 0.730583
-0.1341931 -0.0308506 0.8297493
-0.1336997 -0.02642175 0.8240373
-0.1402378 -0.02670225 0.8227729
-0.1381876 -0.02860253 0.8259004
-0.1323858 -0.02702042 0.8243777
-0.1393904 -0.02776111 0.8244075
-0.1375165 -0.02770768 0.8248003
-0.1393596 -0.02477047 0.820493
-0.1283741 -0.02743308 0.8244993
-0.1314097 -0.02757555 0.8248935
-0.1338461 -0.02548333 0.8227102
-0.1409521 -0.02751692 0.8237622
-0.1421244 -0.02783052 0.8242815
-0.1364247 -0.02689102 0.8240486
-0.1294019 -0.02645257 0.8234625
-0.1310425 -0.02666628 0.8238554
-0.1339848 -0.02474183 0.8212166
-0.1259439 -0.02665532 0.8241239
-0.1287578 -0.02514838 0.8221067
-0.130729 -0.02519673 0.8224631
-0.1377104 -0.02269787 0.8172191
-0.1411193 -0.02559017 0.8210189
-0.1275153 -0.026229 0.8232876
-0.09967831 -0.01626438 0.8140296
-0.1380261 -0.0254056 0.8215718
-0.127129 -0.02711181 0.8245858
-0.1221845 -0.02579582 0.8236204
-0.1246758 -0.02756276 0.8250772
-0.1209089 -0.02809724 0.8266842
-0.1196816 -0.02824472 0.8280978
-0.1138565 -0.02675842 0.8268603
-0.1189203 -0.02727892 0.8265695
-0.1202399 -0.02708131 0.8257302
-0.1270386 -0.02490146 0.8218172
-0.1241148 -0.02610093 0.8237242
-0.1257653 -0.02554297 0.8228605
-0.1243257 -0.02506077 0.8223945
-0.1246715 -0.01986118 0.7818452
-0.1181375 -0.01741729 0.8130874
-0.1210782 -0.02004198 0.7681447
-0.1238408 -0.02306426 0.7782303
-0.1328877 -0.01830058 0.8124237
-0.1227284 -0.02332272 0.7772324
-0.1205516 -0.02561597 0.7716721
-0.1270042 -0.02289919 0.7682804
-0.1298196 -0.02250969 0.7618554
-0.1316534 -0.02000743 0.76121
-0.1272534 -0.02309749 0.7661795
-0.1323903 -0.02284925 0.8183967
-0.1322816 -0.02344617 0.8200334
-0.13876 -0.02348191 0.8177892
-0.1390563 -0.02396945 0.8189682
-0.1421701 -0.02703434 0.8226564
-0.1375623 -0.02429859 0.8200685
-0.1426803 -0.02466592 0.8191921
-0.124193 -0.01599675 0.7875151
-0.1983583 -0.01587693 0.7976516
-0.1279447 -0.0207237 0.815957
-0.1236352 -0.02192304 0.7792999
-0.1361277 -0.02051984 0.8144152
-0.1339208 -0.02370463 0.8197191
-0.1337376 -0.02227251 0.8173419
-0.1326431 -0.02197351 0.8169442
-0.1205762 -0.0241466 0.821865
-0.1173355 -0.02455749 0.8230444
-0.1392026 -0.02301668 0.8169466
-0.1404666 -0.02271494 0.8165556
-0.1418658 -0.0143038 0.8047424
-0.1291924 -0.02346521 0.8193558
-0.1213686 -0.0230983 0.7769927
-0.1224346 -0.02394862 0.7758413
-0.1208943 -0.02347969 0.7753412
-0.1203907 -0.02204303 0.7744336
-0.1203754 -0.02294754 0.7730056
-0.1201507 -0.02395288 0.7703996
-0.1203475 -0.0219141 0.776424
-0.1281264 -0.02416386 0.8206123
-0.125567 -0.02260513 0.8191429
-0.1220793 -0.02078697 0.8170227
-0.1233608 -0.02385851 0.8206502
-0.1218991 -0.02492221 0.8223737
-0.1237333 -0.02284477 0.8196052
-0.1222476 -0.02318872 0.8199627
-0.1238978 -0.02194774 0.8183581
-0.1242513 -0.02438493 0.8213529
-0.1264772 -0.02370899 0.8205602
-0.1254839 -0.0244773 0.8216292
-0.1219747 -0.02408241 0.8211155
-0.124851 -0.02354125 0.8205547
-0.1192584 -0.02324979 0.8211447
-0.1212655 -0.02253928 0.8194369
-0.1210702 -0.02153886 0.8184107
-0.1298313 -0.02421145 0.8208934
-0.1314668 -0.02408611 0.8210291
-0.1378651 -0.02355503 0.8185547
-0.1328094 -0.02409811 0.8208197
-0.1399678 -0.02342706 0.8178485
-0.1302757 -0.02257906 0.818274
-0.1361098 -0.02326652 0.8188326
-0.1308807 -0.02335757 0.8197083
-0.1294186 -0.02146679 0.8168587
-0.1407639 -0.0217919 0.8151758
-0.1391157 -0.02211056 0.8159727
-0.1372757 -0.02138723 0.815559
-0.126583 -0.02110902 0.8166466
-0.1304286 -0.02029556 0.8148453
-0.1306258 -0.02107278 0.8157757
-0.1407602 -0.0197299 0.8125935
-0.1371096 -0.01825777 0.8111639
-0.1253038 -0.02148977 0.817602
-0.1159729 -0.02177987 0.8193352
-0.1216961 -0.01981806 0.8158121
-0.1237042 -0.02106115 0.817165
-0.1246587 -0.01989306 0.8151422
-0.1263388 -0.02010369 0.8151829
-0.1207627 -0.02061485 0.7771375
-0.1209952 -0.02019052 0.7739909
-0.1240442 -0.01767625 0.7846074
-0.1264851 -0.02017721 0.7830775
-0.134588 -0.0204161 0.814668
-0.1190553 -0.0157962 0.8102819
-0.1277919 -0.01428248 0.8069845
-0.1223973 -0.02100167 0.778492
-0.1234957 -0.02022434 0.7800672
-0.12271 -0.01702785 0.7843597
-0.1339495 -0.01947108 0.8135257
-0.1280586 -0.01984198 0.8145353
-0.1359287 -0.01907484 0.8122697
-0.1395021 -0.01662212 0.8077124
-0.1392677 -0.01995247 0.8132409
-0.1408993 -0.02066475 0.8137947
-0.1345553 -0.0188058 0.8125899
-0.1330517 -0.02223282 0.7645859
-0.1276638 -0.02359111 0.7593078
-0.1200106 -0.02205501 0.7704197
-0.1279476 -0.02193012 0.7604876
-0.1266323 -0.02257487 0.7674039
-0.1214109 -0.01888584 0.7708223
-0.1195639 -0.02027786 0.7640644
-0.12088 -0.02067337 0.7695141
-0.1166633 -0.02231855 0.7617339
-0.1209679 -0.02037752 0.7708296
-0.1266709 -0.02221929 0.7607296
-0.1238877 -0.02248792 0.7596242
-0.1243099 -0.02145108 0.7596354
-0.1243765 -0.01996448 0.7570112
-0.1251072 -0.01938041 0.7559282
-0.123581 -0.02084209 0.7581745
-0.1227695 -0.02163919 0.7596643
-0.125798 -0.02090181 0.7602294
-0.1355484 -0.01909638 0.7552713
-0.133775 -0.0200772 0.7608384
-0.1400503 -0.01962375 0.7632971
-0.129818 -0.02019257 0.7612667
-0.1272853 -0.02051725 0.7607939
-0.1250743 -0.02024878 0.7586034
-0.1267831 -0.01978233 0.7588389
-0.1308751 -0.01964363 0.7593674
-0.1352325 -0.02125577 0.7551652
-0.1342426 -0.01998167 0.7560202
-0.1328184 -0.01924248 0.7559012
-0.1484228 0.008371741 0.75883
-0.1351054 -0.02118072 0.7571107
-0.1414441 -0.02098666 0.7498353
-0.137601 -0.01778199 0.7526313
-0.1426413 -0.02006455 0.7488031
-0.1289904 -0.01912771 0.7478553
-0.1379119 -0.01905883 0.7483593
-0.1337979 -0.01916679 0.7481828
-0.133262 -0.01915153 0.7504077
-0.1333596 -0.01985781 0.7491322
-0.1168754 -0.02119388 0.7536177
-0.1365597 -0.01938296 0.7490355
-0.1377979 -0.01960554 0.7517236
-0.1328719 -0.01793325 0.747592
-0.1228046 -0.04219783 0.7381361
-0.1368322 -0.01803049 0.7476811
-0.1199133 -0.03117706 0.7382367
-0.1184033 -0.03095611 0.7375866
-0.1211207 -0.0199852 0.7553344
-0.1335713 -0.01998433 0.7574102
-0.1346434 -0.02013839 0.7590508
-0.1401608 -0.020926 0.7519658
-0.1348235 -0.02004919 0.7492095
-0.1383846 -0.02055722 0.7564228
-0.121132 -0.0218474 0.7594007
-0.1203986 -0.02318697 0.771747
-0.1265504 -0.02348033 0.7669411
-0.117244 -0.02034683 0.751967
-0.126013 -0.02355791 0.7594382
-0.1363029 -0.02058256 0.758827
-0.1235892 -0.02459352 0.7576393
-0.1200968 -0.02342241 0.7670454
-0.1268492 -0.02393413 0.7657824
-0.1201263 -0.02367441 0.7656572
-0.1207568 -0.02159963 0.7688469
-0.120389 -0.02395004 0.7726098
-0.1202863 -0.0245606 0.7716444
-0.1210887 -0.02469788 0.7601501
-0.1199573 -0.02267886 0.7642871
-0.1198582 -0.02521573 0.7665122
-0.1202761 -0.02302973 0.7609036
-0.1202307 -0.02194854 0.7657603
-0.1243592 -0.01919805 0.7545955
-0.1214875 -0.01961653 0.7695725
-0.1230248 -0.01830568 0.7536216
-0.1194016 -0.02197903 0.7554578
-0.1206169 -0.02173853 0.767423
-0.1205793 -0.01499237 0.7675753
-0.1213865 -0.01802008 0.7723181
-0.1206832 -0.02158749 0.7724146
-0.1185456 -0.01985599 0.7654147
-0.1201203 -0.02000649 0.7661959
-0.1127473 -0.02115958 0.7649978
-0.1141101 -0.02270844 0.7601277
-0.11978 -0.0292051 0.7639818
-0.120782 -0.01626143 0.7692942
-0.1168175 -0.02330579 0.7602687
-0.1163806 -0.02170124 0.763156
-0.1142608 -0.01993739 0.765666
-0.1131865 -0.01936242 0.7651943
-0.1114109 -0.02173109 0.7572716
-0.1173059 -0.01706049 0.7664456
-0.1109411 -0.0194827 0.761901
-0.1106106 -0.02135072 0.7640878
-0.1138651 -0.01819877 0.7658144
-0.1123029 -0.02129665 0.7583461
-0.1125122 -0.02004075 0.7622569
-0.1179941 -0.02040256 0.7534074
-0.1176024 -0.01739179 0.7510809
-0.113895 -0.02216829 0.753247
-0.1148785 -0.02016256 0.7521427
-0.1109382 -0.02121856 0.7524819
-0.1124143 -0.01889742 0.7508563
-0.1107357 -0.01862508 0.7502824
-0.1163752 -0.01916458 0.7505373
-0.1183826 -0.02112247 0.7543089
-0.1108516 -0.01771983 0.7490208
-0.114643 -0.02305427 0.7544018
-0.1134698 -0.02591346 0.7562862
-0.1100852 -0.03379826 0.747174
-0.1103092 -0.02631029 0.7541127
-0.1133937 -0.02519175 0.7581924
-0.1172671 -0.02222845 0.7556875
-0.1121094 -0.02192298 0.7535995
-0.115239 -0.03368868 0.738192
-0.110946 -0.02717887 0.7564712
-0.1117683 -0.02448688 0.7581276
-0.1151418 -0.0225635 0.760919
-0.1186176 -0.02226685 0.7609214
-0.1136626 -0.02160187 0.7612192
-0.1125549 -0.02186731 0.7630543
-0.109755 -0.01847639 0.7591065
-0.1106285 -0.02132873 0.7625136
-0.1132178 -0.02356405 0.7539805
-0.1110618 -0.02233719 0.7544211
-0.1110186 -0.02243723 0.755666
-0.1127371 -0.02065556 0.7519736
-0.1070285 -0.01940493 0.7605655
-0.1073341 -0.01694955 0.7463901
-0.106073 -0.02007824 0.7511767
-0.1106623 -0.02001394 0.7513846
-0.1011575 -0.01954629 0.7518964
-0.1045665 -0.01799067 0.7534685
-0.1000981 -0.01906654 0.7516999
-0.1053744 -0.01730768 0.754848
-0.1079336 -0.02054637 0.7614368
-0.1098926 -0.02691937 0.7554963
-0.1093784 -0.02040425 0.7614167
-0.1085125 -0.01903258 0.7601133
-0.1069929 -0.01986225 0.7522172
-0.107465 -0.0156164 0.7611533
-0.1129556 -0.01981472 0.7591308
-0.1088686 -0.01977419 0.764395
-0.1102294 -0.01726937 0.765454
-0.1156207 -0.01850174 0.7663524
-0.1018894 -0.0204302 0.8193795
-0.1071655 -0.01760735 0.7573532
-0.103953 -0.0183544 0.8164244
-0.101813 -0.02241262 0.8225853
-0.100501 -0.02067214 0.8202923
-0.09444518 -0.01931603 0.8198597
-0.09540748 -0.02197072 0.8232947
-0.1072788 -0.02066316 0.8192064
-0.1124977 -0.01875043 0.8157138
-0.1130308 -0.02033307 0.8180667
-0.1126727 -0.02147364 0.8195983
-0.1116095 -0.02226537 0.820969
-0.1107467 -0.02129078 0.8196125
-0.1090079 -0.02105302 0.8194668
-0.1079721 -0.02167775 0.820949
-0.1189163 -0.01991909 0.8166228
-0.09928735 -0.02111923 0.8213509
-0.1079764 -0.01800722 0.8151503
-0.1157375 -0.01984243 0.8162668
-0.1198341 -0.01744261 0.8124115
-0.1185896 -0.02057105 0.8175458
-0.1106837 -0.01990825 0.8173998
-0.1200267 -0.01940232 0.8157859
-0.1191415 -0.02136741 0.8185574
-0.1144136 -0.02097729 0.8188214
-0.1178526 -0.0223581 0.8199604
-0.1104946 -0.02403885 0.8239947
-0.1164867 -0.02518048 0.8242437
-0.1066423 -0.0227169 0.822367
-0.1051924 -0.02453035 0.8249978
-0.1130974 -0.02273808 0.8210698
-0.1174992 -0.02358388 0.8217469
-0.112235 -0.02318713 0.8219503
-0.1109089 -0.0230997 0.8223408
-0.1034116 -0.02233355 0.8220838
-0.09807233 -0.02321289 0.8237996
-0.09848975 -0.02210248 0.8224427
-0.09541766 -0.0199697 0.8209909
-0.09722979 -0.02064806 0.8214196
-0.1001203 -0.02215721 0.8224971
-0.09470844 -0.02262845 0.82416
-0.09351478 -0.02015401 0.8213495
-0.09536546 -0.02104646 0.8221631
-0.09647512 -0.01925579 0.819699
-0.09369197 -0.02156869 0.8230982
-0.09681004 -0.02204005 0.822805
-0.09543488 -0.02344363 0.8251513
-0.103103 -0.02309914 0.8233242
-0.09977613 -0.02373645 0.8243134
-0.09322859 -0.02262249 0.8244069
-0.09945726 -0.02292733 0.8232785
-0.09414235 -0.02316668 0.825078
-0.09421568 -0.02399434 0.8261494
-0.09313153 -0.02325878 0.8254446
-0.09376328 -0.01705749 0.816141
-0.09784891 -0.02475372 0.8263884
-0.0961076 -0.02443089 0.8263026
-0.09627095 -0.02285613 0.824042
-0.100216 -0.02469541 0.8254683
-0.1047006 -0.02334879 0.8232195
-0.09023906 -0.02170294 0.823074
-0.110107 -0.0250538 0.8255611
-0.1032033 -0.0240298 0.8247313
-0.108789 -0.02438027 0.8245348
-0.106265 -0.023887 0.8238759
-0.1119035 -0.02501847 0.8250993
-0.1070859 -0.02486309 0.8250948
-0.1174937 -0.02625459 0.8254107
-0.1169166 -0.02720407 0.8268164
-0.112314 -0.02387694 0.823356
-0.1075539 -0.02372135 0.823776
-0.1013512 -0.02402987 0.824645
-0.1139771 -0.02398656 0.8231665
-0.1088985 -0.0229741 0.8228
-0.1159793 -0.02282417 0.8210062
-0.1158588 -0.01386614 0.7680819
-0.1181396 -0.02534858 0.8240601
-0.1189499 -0.02455912 0.8226544
-0.1144194 -0.02308262 0.8218516
-0.1157857 -0.02391315 0.8228406
-0.1154564 -0.0262265 0.8257474
-0.1007975 -0.02313225 0.8235295
-0.09186272 -0.02204749 0.8237044
-0.1072699 -0.02590009 0.8264301
-0.0992145 -0.02511195 0.8261979
-0.1111794 -0.02672716 0.827373
-0.1085485 -0.02552577 0.8259445
-0.1165549 -0.02780067 0.8280279
-0.1116796 -0.02574796 0.757111
-0.09054299 -0.02311672 0.82577
-0.1120529 -0.03808523 0.7410803
-0.1135872 -0.02570097 0.8254058
-0.1123532 -0.02624506 0.8264294
-0.105861 -0.02548577 0.8264645
-0.1110901 -0.02574963 0.8263643
-0.1195185 -0.02551349 0.8239242
-0.1193019 -0.0287179 0.75871
-0.1195913 -0.0290313 0.7575471
-0.1199453 -0.02799056 0.7581949
-0.1200737 -0.02612047 0.7681348
-0.1192235 -0.02855459 0.7614709
-0.1179717 -0.02780129 0.828036
-0.118804 -0.03025102 0.7614253
-0.1158045 -0.03398471 0.7405386
-0.1113368 -0.02680004 0.7526256
-0.1107768 -0.02834359 0.7540697
-0.1101596 -0.03259739 0.7516556
-0.1101127 -0.03184821 0.7528805
-0.1096686 -0.03275373 0.7484413
-0.1099718 -0.03346426 0.7500008
-0.1092328 -0.02778008 0.7543779
-0.111678 -0.03507395 0.7485459
-0.1155159 -0.03370523 0.7424709
-0.1148578 -0.03387783 0.7437456
-0.1162577 -0.03151465 0.7328879
-0.1221251 -0.03661018 0.7457091
-0.1199987 -0.03770514 0.746541
-0.1161959 -0.03272055 0.7371624
-0.1172317 -0.0317174 0.7374723
-0.1174452 -0.0327052 0.7402807
-0.1182141 -0.03182054 0.7388999
-0.1183645 -0.03077164 0.7326062
-0.1181797 -0.02989795 0.7354858
-0.1187388 -0.03192595 0.7314619
-0.1166331 -0.03166388 0.7361478
-0.1172349 -0.03039471 0.7341917
-0.1170861 -0.03072394 0.7353656
-0.1069579 -0.01385207 0.7431559
-0.1083766 -0.02996145 0.752915
-0.1113276 -0.02999619 0.751
-0.1136623 -0.02964805 0.7527191
-0.110002 -0.02744513 0.753178
-0.1106933 -0.03086285 0.7531751
-0.1089957 -0.03011849 0.7515597
-0.108894 -0.02876553 0.7530336
-0.1099521 -0.02964111 0.7540033
-0.1090282 -0.03157403 0.750621
-0.1093552 -0.03067887 0.753435
-0.1103294 -0.03536146 0.7471213
-0.1137395 -0.03641079 0.7431746
-0.1112703 -0.03713735 0.7434559
-0.1139377 -0.0328112 0.7461497
-0.1137526 -0.03456662 0.7372673
-0.1144962 -0.03923491 0.7302602
-0.1152022 -0.03370292 0.736478
-0.1149412 -0.03580472 0.7342994
-0.1162505 -0.03467854 0.7334823
-0.113309 -0.0381769 0.7326342
-0.1163482 -0.0330028 0.7339261
-0.1169983 -0.03313897 0.7421259
-0.115249 -0.03307471 0.7449881
-0.115986 -0.0333063 0.7435876
-0.1166935 -0.03278586 0.7387306
-0.11315 -0.03719252 0.7409904
-0.1136683 -0.03707521 0.7333944
-0.1140788 -0.03592687 0.7380459
-0.1124168 -0.03979009 0.7418304
-0.1107784 -0.03661688 0.7458726
-0.110815 -0.03644038 0.7448123
-0.1120735 -0.03777894 0.7455394
-0.1108443 -0.03749223 0.7447136
-0.113243 -0.03953421 0.737213
-0.1142115 -0.03672799 0.739271
-0.1140183 -0.03624303 0.7366411
-0.1145736 -0.03740858 0.7319357
-0.1160907 -0.03829414 0.7266769
-0.1157907 -0.03646581 0.7314749
-0.1135213 -0.04088452 0.7370785
-0.114864 -0.03989293 0.7439846
-0.1126088 -0.03968711 0.7392858
-0.1131329 -0.03920841 0.7430946
-0.1138855 -0.04090199 0.742539
-0.1151005 -0.04266475 0.7359236
-0.1150544 -0.04112367 0.7383612
-0.113428 -0.03975282 0.7342733
-0.114208 -0.03877858 0.7314357
-0.1154789 -0.04404968 0.7347403
-0.090682 -0.01729611 0.7525504
-0.1163175 -0.04225268 0.7371053
-0.1158921 -0.04450666 0.7333997
-0.1197265 -0.04688657 0.742385
-0.1145653 -0.04369548 0.7330293
-0.1175486 -0.04119502 0.7307847
-0.1160455 -0.0417079 0.7306864
-0.1172036 -0.04275329 0.7314383
-0.1146348 -0.04275536 0.7312118
-0.1192851 -0.04294391 0.7325165
-0.1156196 -0.04400067 0.7320931
-0.1181807 -0.04615444 0.7371125
-0.1193895 -0.04672435 0.7372712
-0.1177475 -0.04167601 0.7385675
-0.1181945 -0.04738209 0.7377622
-0.1183853 -0.04618058 0.7384937
-0.1146643 -0.04171319 0.7368674
-0.114356 -0.03962267 0.7326291
-0.1156336 -0.04130132 0.7430825
-0.1222861 -0.04129402 0.7464145
-0.1244304 -0.04011663 0.7378976
-0.1141775 -0.04076358 0.7313021
-0.1149826 -0.03856635 0.7287
-0.1154024 -0.03752241 0.7300682
-0.1167644 -0.03866477 0.7265785
-0.1165288 -0.03925554 0.7254216
-0.1173856 -0.03965602 0.7252896
-0.1176093 -0.04105901 0.7262177
-0.1178378 -0.04094401 0.7283057
-0.1193564 -0.04816618 0.7411947
-0.1163377 -0.04116348 0.7250924
-0.1178941 -0.0436346 0.7352404
-0.1185604 -0.04490269 0.7367346
-0.119523 -0.04174162 0.7363163
-0.1169263 -0.0437164 0.7343742
-0.1209231 -0.04120187 0.734728
-0.1174435 -0.04240459 0.7418888
-0.1164066 -0.04237864 0.7427652
-0.1210435 -0.04610724 0.743431
-0.1180269 -0.04286062 0.7437459
-0.1183116 -0.04138558 0.7446585
-0.1178123 -0.04292556 0.7369127
-0.1187449 -0.04721826 0.7410775
-0.1190034 -0.04787885 0.7383549
-0.119898 -0.0435139 0.7439322
-0.1186637 -0.04652593 0.7400814
-0.1172641 -0.04380157 0.7328541
-0.1179571 -0.04400532 0.7360675
-0.118526 -0.04388004 0.734072
-0.1201249 -0.04393633 0.7403878
-0.1232697 -0.04207955 0.7363809
-0.1214789 -0.04123284 0.7360193
-0.119476 -0.04577082 0.7411599
-0.1200184 -0.04380977 0.7368931
-0.125396 -0.03854615 0.7469106
-0.1240626 -0.0367163 0.7453014
-0.1222244 -0.04550683 0.7393761
-0.1223842 -0.04496277 0.743336
-0.1249183 -0.04175561 0.7408538
-0.1194177 -0.04215095 0.7445056
-0.1178657 -0.03984047 0.7306854
-0.1245782 -0.03735165 0.7381596
-0.124272 -0.0421584 0.7390662
-0.1241934 -0.04172948 0.7376307
-0.1516897 -0.007433316 0.7277831
-0.1523432 -0.006994179 0.7268072
-0.1506349 -0.007873274 0.7254316
-0.1226937 -0.03559848 0.7355956
-0.1186363 -0.0432886 0.7357386
-0.1197931 -0.04261998 0.7342157
-0.1227676 -0.03688413 0.7344548
-0.122812 -0.04050575 0.7357073
-0.124545 -0.03595501 0.7415546
-0.1246675 -0.03594061 0.738702
-0.1238841 -0.03733794 0.7360206
-0.1216559 -0.0385173 0.7328405
-0.1252899 -0.03686199 0.7400673
-0.1219094 -0.035923 0.7338023
-0.1220017 -0.03376443 0.7354848
-0.1224096 -0.03712404 0.7327734
-0.1200644 -0.0357508 0.7455219
-0.1178133 -0.03582641 0.7466398
-0.1245087 -0.03883218 0.7372557
-0.122234 -0.03503562 0.7435288
-0.1251225 -0.034727 0.7399083
-0.1242056 -0.03584015 0.7371156
-0.1231029 -0.03424748 0.7371399
-0.1185325 -0.03443014 0.7301581
-0.1210245 -0.03478237 0.7333353
-0.1214569 -0.03580574 0.7316869
-0.1188686 -0.03316947 0.7312922
-0.1166015 -0.03567655 0.7302973
-0.1163453 -0.03744302 0.727448
-0.1175884 -0.03913693 0.7295514
-0.1178839 -0.03969318 0.7273744
-0.116985 -0.03800134 0.7283983
-0.1206157 -0.03879689 0.7317055
-0.1181903 -0.03718302 0.7466285
-0.1177723 -0.03352912 0.7447219
-0.1188795 -0.03746068 0.7303538
-0.1192718 -0.03950281 0.731235
-0.1913942 -0.007649935 0.7875791
-0.1669294 -0.01271918 0.7568473
-0.198001 -0.003949889 0.776185
-0.1865754 -0.007013784 0.7873459
-0.1474464 -0.0151207 0.7839075
-0.1509199 0.002141308 0.759157
-0.1968869 -0.01663254 0.7991998
-0.1632954 -0.005804417 0.7372395
-0.1622118 -0.006539487 0.7373466
-0.1628305 -0.004199578 0.7376676
-0.1549228 -0.007274348 0.7337146
-0.1628492 -0.01098095 0.7407004
-0.159406 -0.006754418 0.7354887
-0.16101 -0.005756297 0.7362821
-0.1543884 -0.007954886 0.7360008
-0.1575998 -0.006934277 0.7346261
-0.1567459 -0.007623893 0.7360488
-0.15554 -0.007620184 0.7355773
-0.125185 -0.00476699 0.737193
-0.1297126 -0.003811937 0.7352231
-0.1286388 -0.003538525 0.7337692
-0.1318246 -0.003079071 0.7345855
-0.1298648 -0.002773224 0.7334058
-0.147553 -0.008311021 0.7316886
-0.1320791 -0.005258095 0.7336774
-0.124446 0.01042342 0.7237675
-0.1313108 -0.001896776 0.7324894
-0.1279181 -0.004147633 0.7348176
-0.1344311 -0.008014251 0.7306129
-0.1319821 -0.00710928 0.7324603
-0.1535172 -0.007631184 0.733784
-0.1445512 -0.007681279 0.7287036
-0.1345821 -0.01065761 0.7342702
-0.1423957 -0.009863266 0.7328575
-0.1314423 -0.009737119 0.734764
-0.1410453 -0.009705597 0.733593
-0.1289792 -0.008782038 0.7336253
-0.141825 -0.01090046 0.73408
-0.1354719 -0.01107473 0.7366899
-0.1357174 -0.01038976 0.7351306
-0.1348584 -0.009316569 0.723779
-0.1352389 -0.00959666 0.7317836
-0.1325799 -0.00832276 0.7311796
-0.1463 -0.009252488 0.7322475
-0.1460788 -0.01128038 0.7351249
-0.1340572 -0.01062708 0.7328599
-0.1324755 -0.01002828 0.7330019
-0.1499183 -0.009315692 0.7351744
-0.1445724 -0.01004846 0.7326831
-0.1319913 -0.009254472 0.7318254
-0.1340538 -0.005167684 0.7321841
-0.1401472 -0.01040291 0.734084
-0.1380249 -0.007563494 0.7271425
-0.1423036 -0.01201236 0.735433
-0.1470782 -0.01202616 0.7377023
-0.1487951 -0.01189931 0.7388355
-0.1475662 -0.01057618 0.7355832
-0.1470161 -0.01146084 0.7363866
-0.128729 -0.0063335 0.7354522
-0.1502155 -0.01028855 0.7365105
-0.145397 -0.01225882 0.7363223
-0.13802 -0.01139243 0.7359294
-0.1562939 -0.01083149 0.7396341
-0.1371669 -0.01153469 0.7373749
-0.1556954 -0.008116569 0.7367119
-0.1575275 -0.010559 0.7386684
-0.179813 0.003739754 0.7504646
-0.1678733 -0.006916482 0.7417096
-0.1655454 -0.007678833 0.7404483
-0.1620628 -0.001095083 0.7436158
-0.1647719 -0.01180377 0.7425753
-0.1640869 -0.007777579 0.7394477
-0.1317586 -0.01076086 0.7358156
-0.1303858 -0.01021319 0.7362003
-0.1329534 -0.01210637 0.7377295
-0.140782 -0.0129468 0.7380728
-0.1384547 -0.01215108 0.7383661
-0.1340226 -0.01143291 0.7367342
-0.1295374 -0.01178325 0.7380902
-0.1371893 -0.01216952 0.7391408
-0.1281114 -0.007657244 0.7345447
-0.1269487 -0.004881089 0.7359496
-0.1263769 -0.004514835 0.7342196
-0.128334 -0.008504588 0.7370279
-0.128626 -0.009824336 0.7383756
-0.1296195 -0.009464089 0.7348422
-0.1310173 -0.008690625 0.7333248
-0.1293893 -0.007021443 0.7339909
-0.1250583 -0.004372103 0.7353308
-0.1341947 -0.00285149 0.7264801
-0.1248521 -0.004023756 0.7335031
-0.1268492 -0.006337943 0.7397151
-0.1286756 -0.005064781 0.7356921
-0.1233897 -0.003648863 0.7344926
-0.1173197 -0.006556571 0.7352141
-0.1266739 -0.005730107 0.7376941
-0.1569811 -0.008518455 0.7379655
-0.1279048 -0.01258643 0.7467562
-0.1288959 -0.01350143 0.7467695
-0.1644107 -0.006140922 0.7396586
-0.1700369 0.01131696 0.7547703
-0.171939 0.01403494 0.7559786
-0.125712 -0.00722132 0.7413751
-0.1288211 -0.008910999 0.7402135
-0.1279995 -0.007455799 0.7416402
-0.1285978 -0.008793994 0.7437857
-0.1209137 0.002870464 0.7771414
-0.1198696 0.001270055 0.7764214
-0.1557194 0.01462143 0.7576219
-0.1546261 0.0151881 0.7565121
-0.1494858 0.00646366 0.7580168
-0.1482648 0.01059933 0.7591115
-0.1513272 0.01253393 0.7595609
-0.1975997 -0.00741092 0.7857018
-0.1293296 -0.009998669 0.7435726
-0.1203642 0.001670127 0.777907
-0.1190972 0.0001073287 0.7775089
-0.1613936 -0.01121418 0.7425101
-0.1685315 0.006932367 0.7517421
-0.1667177 0.01085443 0.7548571
-0.1490933 0.01039886 0.754623
-0.1558855 0.00296279 0.7509557
-0.1261888 -0.009509421 0.7444126
-0.1245766 -0.01064148 0.7452104
-0.1288152 -0.01198095 0.7418714
-0.1235102 -0.0111321 0.7460961
-0.124681 -0.01107252 0.7473518
-0.1276724 -0.009882923 0.7454857
-0.1635045 -0.009217362 0.740342
-0.1607035 -0.01109025 0.7398361
-0.1546632 -0.009448674 0.7383068
-0.1556416 -0.008780768 0.7377718
-0.1656661 -0.00912329 0.7399286
-0.173754 0.01578774 0.7548573
-0.1624738 0.002933342 0.7492824
-0.1655322 -0.01065593 0.7410757
-0.1434125 -0.01151085 0.7345011
-0.1309772 -0.01133502 0.7374564
-0.1560632 -0.009679795 0.7387815
-0.1504914 -0.01131217 0.7380341
-0.1515564 -0.01171104 0.739176
-0.1541365 -0.01237958 0.740818
-0.156365 -0.01165295 0.7424161
-0.1527638 -0.01127583 0.7399584
-0.1447103 -0.01159152 0.735103
-0.1372251 -0.01356913 0.7406451
-0.1345408 -0.01181585 0.7375715
-0.13577 -0.01198088 0.7381821
-0.1285674 -0.01085015 0.7400307
-0.1288254 -0.01250063 0.7398292
-0.129234 -0.01239326 0.7387732
-0.1238126 -0.0129649 0.7492756
-0.1228335 -0.01276519 0.7481964
-0.1269721 -0.01429845 0.7510847
-0.128194 -0.01481375 0.7512913
-0.1247695 -0.01507966 0.7522971
-0.1204087 -0.0156409 0.7497326
-0.1286595 -0.01488576 0.7465698
-0.1252229 -0.01217825 0.7488131
-0.1271156 -0.01287931 0.7494245
-0.1295946 -0.01705523 0.7459818
-0.1283542 -0.01678666 0.7484262
-0.1265647 -0.01178835 0.7477244
-0.1286034 -0.01459994 0.7484195
-0.1298962 -0.01863237 0.7468602
-0.1309604 -0.01670427 0.7519154
-0.1392934 -0.01908605 0.7480912
-0.1304262 -0.01716418 0.7504237
-0.1683045 0.01563414 0.755563
-0.1892026 0.0132264 0.7546471
-0.1542487 0.003134132 0.7572381
-0.1532532 0.003041109 0.7554246
-0.1520659 0.002572853 0.7581834
-0.1290228 -0.01834258 0.7490015
-0.1282161 -0.01286539 0.748117
-0.1297012 -0.01565434 0.7514402
-0.1323195 -0.01723698 0.7526765
-0.1282942 -0.01694995 0.7538782
-0.1299375 -0.01721012 0.7541499
-0.1361171 -0.0175052 0.753094
-0.131512 -0.0170834 0.7542873
-0.1262303 -0.01635721 0.7534359
-0.1296401 -0.01655539 0.7528182
-0.1256249 -0.01402519 0.751339
-0.1252731 -0.01334706 0.750008
-0.1203215 -0.01696358 0.7675465
-0.1281584 -0.01566398 0.7526241
-0.1266941 -0.01485185 0.7521698
-0.125429 -0.01847345 0.755326
-0.1238784 -0.01657355 0.7531454
-0.1282807 -0.01967858 0.7577595
-0.1305948 -0.01777981 0.755322
-0.1289956 -0.01811488 0.7550827
-0.1298044 -0.01931009 0.7558989
-0.1258666 -0.01979035 0.7571292
-0.1270022 -0.01832282 0.7549083
-0.124963 -0.01765697 0.7543728
-0.1319763 -0.01795567 0.7511603
-0.1240105 -0.01985649 0.7555856
-0.1339388 -0.01809451 0.7555972
-0.1322127 -0.01787364 0.7551507
-0.1261268 -0.01888878 0.7561773
-0.1294999 -0.01959559 0.7601551
-0.1284838 -0.01988734 0.7559376
-0.1271386 -0.01974636 0.7567179
-0.1283081 -0.01950521 0.7597913
-0.1286176 -0.02041943 0.7608326
-0.1344233 -0.01719747 0.752932
-0.1336085 -0.01828529 0.751694
-0.1371227 -0.01824543 0.754216
-0.1353078 -0.01747775 0.7550122
-0.1351928 -0.01861152 0.7481304
-0.1473427 -0.01829289 0.7474948
-0.1507876 -0.01872918 0.7496348
-0.1833637 -0.008527569 0.7910247
-0.1812678 -0.008362045 0.7903784
-0.1775706 -0.01567001 0.8015748
-0.1508575 0.002408651 0.7589708
-0.1505152 0.002070788 0.7593751
-0.1506922 0.00230497 0.7593083
-0.1513857 0.003166422 0.7588658
-0.1386871 -0.01964421 0.7500679
-0.1398921 -0.01820096 0.7472205
-0.1440954 -0.01897534 0.7483432
-0.1502433 -0.01793388 0.7482922
-0.1490981 -0.01605242 0.7453207
-0.1475649 -0.01825702 0.7489594
-0.150994 -0.01664161 0.7449891
-0.1540287 -0.0177257 0.7468402
-0.1395053 -0.01614191 0.7438338
-0.1441813 -0.01754461 0.7441943
-0.1637233 0.01351564 0.7567488
-0.1427433 -0.01902392 0.7468433
-0.1409885 -0.01907414 0.7479257
-0.1409305 -0.01838551 0.746016
-0.1446858 -0.0184778 0.7458804
-0.1342222 -0.01799257 0.7473543
-0.1412405 -0.0165245 0.744219
-0.1313716 -0.01859531 0.7473032
-0.1308688 -0.01584789 0.7453517
-0.1337586 -0.01704439 0.7461017
-0.134036 -0.01614451 0.7446582
-0.1314963 -0.0176355 0.7459528
-0.1366282 -0.01596876 0.7436337
-0.1333545 -0.01585827 0.7432703
-0.1483485 -0.01750077 0.7480372
-0.1387104 -0.01675378 0.7451343
-0.1288128 -0.01579526 0.7457555
-0.1286301 -0.01272139 0.7453446
-0.1273405 -0.01168677 0.7461323
-0.1293765 -0.01346022 0.743317
-0.1290997 -0.01454645 0.7451114
-0.1349378 -0.01578271 0.7436342
-0.1300573 -0.01505427 0.7439197
-0.1477958 -0.01714 0.7464631
-0.1472556 -0.01619802 0.7446914
-0.1459877 -0.01756728 0.7450765
-0.145528 -0.0163123 0.7438433
-0.1486272 -0.01532137 0.7434853
-0.1560604 -0.01562824 0.7442523
-0.138048 -0.01596914 0.7426314
-0.1596574 -0.01214571 0.7439494
-0.1569483 -0.01378854 0.7440655
-0.1588513 -0.01312138 0.7448044
-0.1631637 -0.01253706 0.7435943
-0.1823241 0.01194247 0.7541916
-0.1846993 0.01305419 0.7551668
-0.1711394 -0.007811725 0.7461047
-0.1620433 -0.01408309 0.7479588
-0.1548125 -0.01761454 0.7446718
-0.1589452 -0.01580392 0.75098
-0.1499006 -0.01715557 0.7468842
-0.1517954 -0.01853217 0.7467063
-0.1466457 -0.01840532 0.7461547
-0.1402837 -0.01701169 0.745194
-0.1393877 -0.01574041 0.7420492
-0.1489625 -0.01404852 0.7420547
-0.1518074 -0.01439182 0.742157
-0.1434386 -0.01262268 0.7385304
-0.1387901 -0.01405144 0.740218
-0.1402054 -0.01415409 0.7402594
-0.136785 -0.01521737 0.7418483
-0.1382825 -0.01290848 0.7395458
-0.1485958 -0.01082327 0.7372079
-0.1488022 -0.01291341 0.7405567
-0.1515191 -0.01332284 0.7408096
-0.1563468 -0.01301348 0.7429996
-0.1505514 -0.0125257 0.7397743
-0.1546914 -0.01055331 0.7397666
-0.1503489 -0.01360605 0.7414113
-0.1518525 -0.01245211 0.7400983
-0.1570877 -0.01173544 0.7401908
-0.1574587 -0.01258973 0.7438176
-0.1581612 -0.01268943 0.7414151
-0.1328243 -0.01143804 0.736222
-0.1312706 -0.01322519 0.7401588
-0.143808 -0.0121214 0.7355888
-0.1339778 -0.01447682 0.7411224
-0.1313004 -0.01237261 0.738809
-0.1302416 -0.01419189 0.7425125
-0.1301309 -0.01208825 0.7385472
-0.1292787 -0.01166134 0.7439426
-0.1299619 -0.01275431 0.7395029
-0.1342292 -0.01355363 0.7400678
-0.1174328 -0.00304694 0.7309884
-0.1297206 -0.0136701 0.7408878
-0.1327612 -0.0140522 0.7405431
-0.1354301 -0.01424266 0.7412225
-0.1292928 -0.01357981 0.7420316
-0.1315647 -0.01548672 0.7431529
-0.135628 -0.01526545 0.742545
-0.1328602 -0.01513756 0.7417986
-0.1313441 -0.01432495 0.7414702
-0.1343835 -0.01523614 0.7422156
-0.1151382 -0.01240891 0.7443328
-0.1117104 -0.01296443 0.7419485
-0.1097944 -0.01571371 0.7475937
-0.111473 -0.01670165 0.7469835
-0.1119692 -0.01555869 0.7454959
-0.1132151 -0.0121093 0.7419599
-0.1131268 -0.01633816 0.7466577
-0.1052101 -0.01636575 0.7462997
-0.1080632 -0.01337845 0.7449754
-0.1144603 -0.008610248 0.7378912
-0.1065966 -0.01545133 0.7448078
-0.1055864 -0.0143822 0.7435753
-0.1042036 -0.01290514 0.7412307
