# .PCD v0.7 - Point Cloud Data file format
VERSION 0.7
FIELDS x y z
SIZE 4 4 4
TYPE F F F
COUNT 1 1 1
WIDTH 1119
HEIGHT 1
VIEWPOINT 0 0 0 1 0 0 0
POINTS 1119
DATA ascii
0.08291359991 0.1489359587 -0.0005228557857
0.07944711298 0.1468196213 -0.0005258961464
0.08135034889 0.1430633664 -0.0003959886963
0.07287552208 0.1443319768 -0.0004951407318
0.07980491966 0.1483947635 -0.0003593901638
0.07796969265 0.1460847557 -0.0003841266735
0.07154342532 0.1470991224 -0.0001454694138
0.08099224418 0.1473455429 -0.0004099351645
0.08220352978 0.1464704424 -0.0002092465293
0.08143910021 0.1487114131 -0.0004060009378
0.08373805135 0.1456604898 -0.0002578543208
0.08621778339 0.1506577283 -3.913388355e-05
0.08724918216 0.145267725 -0.0003093528212
0.08772946894 0.143745482 -0.0003446689225
0.08873809874 0.1450659633 -0.000496511464
0.08548648655 0.1539811641 -0.0003936019202
0.0879098922 0.1561789811 -3.299329546e-05
0.0846228227 0.1492725462 -0.0003393628285
0.0852298364 0.1472479105 -0.0003671986633
0.07445635647 0.1455018967 -0.0004238830879
0.07727362961 0.1516481489 -0.0002900096006
0.07672955841 0.1468981951 -8.935169899e-05
0.07732989639 0.138805002 -0.0005229476374
0.07492025942 0.1433382779 -0.0004926375696
0.07674207538 0.1431872249 -0.0004206649901
0.07815840095 0.1477316916 -0.0002306443057
0.0747891888 0.1412100941 -0.0004334506521
0.07705732435 0.1417187452 -0.0005232747644
0.06671008468 0.1471973956 -0.0004287702614
0.06982973218 0.1452149302 -0.0003229724825
0.07241567224 0.1404751241 -0.0005178510328
0.07162687182 0.1391413063 -0.0005781712243
0.07139018178 0.1456952691 -0.000325177738
0.07098957896 0.1405040175 -0.0006253777537
0.07256754488 0.14805457 -0.0001480321807
0.07567193359 0.1475624889 -3.621398355e-05
0.07482572645 0.1498921365 -0.0002334153978
0.06817522645 0.1479723155 -0.0002616982674
0.06566080451 0.1423853785 -0.0007994825137
0.06661853194 0.1489003748 -0.0002140143188
0.06803026795 0.1499990821 -0.0001262164151
0.06891539693 0.1517481953 -0.0002314778103
0.06941470504 0.1487082988 -0.0002286771196
0.06680312753 0.1436838955 -0.0006583980285
0.06824663281 0.1461939961 -0.0002705201623
0.07213165611 0.1500482708 -0.0003544425999
0.07092806697 0.1484911144 -0.0001835564617
0.06601312757 0.1505956501 2.377881901e-05
0.06400617957 0.1488930285 -5.075719673e-05
0.0606395267 0.149674058 -8.544692537e-05
0.06495800614 0.1439797431 -0.0005046179285
0.06385233998 0.1424341202 -0.0006261224044
0.06639179587 0.1454156935 -0.0005996869877
0.06969550252 0.1436997652 -0.0005164197064
0.07079198956 0.1427802891 -0.0006106846849
0.07113459706 0.1441410482 -0.0004518081842
0.07285501808 0.1463508159 -0.0003186508839
0.07532312721 0.1511313468 -7.912848378e-05
0.06994667649 0.147022903 -0.0001090212027
0.04963389039 0.1485970318 -0.0002552012156
0.04701331258 0.1527776867 -0.0004067748087
0.05473455787 0.1496104002 3.653398016e-05
0.04628899693 0.1498913765 -0.0003212726442
0.05003717542 0.1470456719 -0.0001897258917
0.05246552825 0.1555532962 -0.0003277086071
0.05351546034 0.1604768336 -1.603475539e-05
0.0539986752 0.1615311652 -6.378511898e-06
0.04494473338 0.1493827254 -0.0004441179335
0.05008194596 0.1427662373 -0.0006776803057
0.04772273451 0.1444675773 -0.0004377414298
0.04694589972 0.1463029087 -0.0002580925939
0.05136576295 0.1458487511 -0.000447397033
0.05159977823 0.1423885375 -0.0005166286719
0.05069128424 0.1414799243 -0.0007633622736
0.0495654121 0.1384948045 -0.0004244510201
0.05102661997 0.1440228224 -0.0002425959101
0.04772898555 0.1489920467 -0.0004267730983
0.04841373116 0.1429028362 -0.0006266885321
0.04574624449 0.1445717663 -0.0002379168291
0.04517308623 0.1397872418 -0.0004082680389
0.04402688891 0.144383356 -0.0002149094653
0.04651234299 0.1389276385 -0.0004448952968
0.04472044855 0.1429762542 -0.0001025848615
0.04662946612 0.1429956257 -0.0002779416973
0.04721340537 0.1476936489 -0.0003601055942
0.04382476211 0.1500462294 -0.0003453230893
0.04631587863 0.151289016 -0.0003293487534
0.04916778207 0.1503742635 -0.0004675423261
0.04879012704 0.1585743129 0.0003360196133
0.04533192515 0.1521286815 -0.0002172620152
0.04517844319 0.150685221 -0.0002615486155
0.0458599627 0.148087889 -0.0003211538715
0.04363420606 0.14823699 -0.0004288296332
0.04244223237 0.1466653198 -0.0003007694031
0.04134204984 0.145744279 -0.0001590893953
0.04189017415 0.1480202973 -0.0002332072472
0.04064241052 0.1602203101 -6.736489013e-06
0.03590753675 0.1454309523 -0.0001531290181
0.03599856049 0.1423876286 -0.0001836771262
0.03449074179 0.1434045732 -8.333244477e-05
0.03569343686 0.1470907778 -0.0003763778077
0.03649434447 0.1499694735 -0.0001861191122
0.03441610932 0.1448244005 -0.0002592254314
0.03954020143 0.1551155746 0.0002444958664
0.03930220008 0.1507678032 7.444276707e-05
0.03732226044 0.1445176601 0.0002352546435
0.03490439057 0.1506192982 -0.0001548861037
0.03054509312 0.1403115839 -0.0001533686591
0.03333012015 0.1429639012 -0.0002945714223
0.03695420176 0.1395153552 -0.0002470673353
0.03396145254 0.1404788941 -0.0004589616146
0.03927264363 0.1386083215 -0.0003808501642
0.03523216397 0.13917014 -0.000324940891
0.04264465719 0.1373224109 -0.0005801386433
0.03834555298 0.1360775828 -0.0006629297859
0.03891871125 0.1374910176 -0.0006570285768
0.04029730707 0.1378907859 -0.0005957548856
0.03753051907 0.1410728246 -9.313796181e-05
0.03833571076 0.1493535489 -6.500631571e-06
0.04359702021 0.1411735117 -0.0002705809893
0.0397779718 0.1411194354 -2.068851609e-05
0.04030076414 0.1393149644 -0.000247395219
0.04258600622 0.1432166398 -5.803033127e-05
0.04165057093 0.1417069286 -5.460341345e-05
0.0426364243 0.145062685 -0.000214283471
0.04567036778 0.1414658576 -0.0002901908301
0.0408230722 0.1470411569 -0.0001586122671
0.04098901898 0.144480601 0.0001178930979
0.03983893991 0.1458165348 7.959740469e-05
0.04036489874 0.142944634 8.636183338e-05
0.04039564729 0.148937583 -8.318689652e-06
0.04445049167 0.1461728364 -0.0003528937814
0.05301907659 0.1486771554 -0.0002763906377
0.04436430335 0.1626689434 0.0004416102311
0.0422565043 0.1494958103 -0.0001814700372
0.05914583802 0.1500711143 -0.0001574790513
0.0533272922 0.1464563012 -0.0003655299079
0.05185589194 0.1536821127 -0.0003656175977
0.05621573329 0.1482362747 -0.0003030638327
0.05641368032 0.1496152431 -0.0002189315273
0.05742517114 0.1505059749 -0.0001863871876
0.05917981267 0.147108078 -0.0002446217404
0.05990334973 0.1484980434 -5.704560317e-05
0.05796709657 0.1487063468 -0.000184897508
0.06094970927 0.1434142888 -0.0003403477021
0.05495396256 0.1462325305 -0.0003762289998
0.05763575435 0.1429657191 -0.0005397849018
0.05586400628 0.1454656571 -0.0005265222862
0.05478653312 0.1448344439 -0.0004549968871
0.05223915726 0.1431710571 -0.0001391224505
0.05644467473 0.1440062374 -0.0005834450712
0.05808958411 0.144209832 -0.0003923227487
0.05506554246 0.1379480064 -0.0007937615155
0.05823329091 0.1381297559 -0.0007474486483
0.05313221365 0.1421865523 -0.0003447885392
0.05915924907 0.1427187771 -0.0003755741927
0.06075152382 0.1401858777 -0.0005718528992
0.06471607089 0.1405693293 -0.0008187650237
0.06298342347 0.1409812123 -0.0008681771578
0.06273171306 0.1461823136 -0.0001123294642
0.06132372841 0.1485833824 0.0001105329138
0.06410601735 0.1472380012 -0.0001627547317
0.06418988109 0.1506265998 -3.388867481e-05
0.06263265014 0.1479680389 0.0001266855979
0.05930474401 0.1567327976 -0.0001328011276
0.06122651324 0.1451641768 -0.0002251314872
0.05997088179 0.1458676159 -0.0003321514523
0.06227591261 0.1499155164 -7.397297304e-05
0.06044295058 0.1514700651 -0.0001924666285
0.05967107043 0.1444774866 -0.0002866138238
0.06259605289 0.1523216218 -5.457107909e-05
0.06106111035 0.1582749337 -0.0001378969755
0.0642401278 0.1552879363 -8.183950558e-05
0.06267890334 0.1570742875 -6.109665264e-05
0.05954148993 0.1547469199 8.937472012e-05
0.06311962008 0.1589328349 -3.70159396e-05
0.061902605 0.1605627537 3.743066918e-05
0.06404223293 0.1608214825 2.41388916e-05
0.06489905715 0.1524754167 -9.644331294e-05
0.06701484323 0.1519528478 -0.0001040430216
0.06810840219 0.1615027487 6.279262016e-05
0.06681939214 0.1618878394 -0.0001448400435
0.06627747416 0.1536498219 -0.0002162483579
0.06800636649 0.1532801241 -0.0001622168347
0.06487676501 0.1541348845 -0.0001296724949
0.06580862403 0.1577913463 2.756540198e-05
0.06662091613 0.1563924253 -0.0001382550399
0.06568649411 0.1551533341 -0.0001174235076
0.06583651155 0.1605372578 -0.0001080344955
0.06309839338 0.1645421386 0.0003514288692
0.06563719362 0.1628746092 5.704112118e-05
0.06440331787 0.1635731608 0.0004550811136
0.06454040855 0.1649683267 0.0004288852215
0.06445064396 0.1623036712 0.0001325600897
0.06285371631 0.1626138091 0.0002732271096
0.06160994619 0.164005518 0.000153720146
0.05879237875 0.1635662019 0.0002331134165
0.05981567129 0.1602343768 0.0001222777646
0.05442240462 0.1676322073 -6.771026528e-05
0.05522504076 0.1643057913 5.158764543e-05
0.05743118748 0.1630429327 0.0003800387494
0.05454566702 0.162912339 5.185080227e-06
0.05527356267 0.1569732428 -0.0003164131776
0.05382284522 0.1579395086 -0.0002147870255
0.05130681396 0.1592576653 0.0004454539157
0.0586749576 0.1618516594 0.0003166191163
0.0594124496 0.1585758477 -0.0001064256357
0.05816218257 0.1582031548 -8.449121378e-05
0.05867674947 0.1594308615 6.437167758e-05
0.05631521344 0.1535479277 -0.0001092282473
0.05579957366 0.150943324 -0.0001010332489
0.05590459704 0.1551527679 -0.0002038800449
0.05921712518 0.1531351954 -0.0001364974887
0.05774822831 0.1531998664 -0.0001162616827
0.05845150352 0.1517171562 -0.0002405377163
0.05841162801 0.1553420126 -9.286636487e-05
0.05730870366 0.1564823985 -8.675659774e-05
0.05844840407 0.1542015225 -1.1267839e-05
0.05736723542 0.1546557099 -0.0002076054516
0.05427351594 0.1514668316 3.075273708e-05
0.0541523397 0.1527974606 -0.0002819328802
0.05681738257 0.1520386785 -0.000192734733
0.0553381741 0.1524217427 -0.0001258880075
0.05369845033 0.1593346447 -0.0001051737636
0.05488732457 0.1538545042 -0.0003187385155
0.044190377 0.1513722092 -0.0001256498508
0.05152717233 0.151899755 -0.0005433888873
0.04212942719 0.1542369276 -0.0001370336686
0.04384562373 0.1548739225 -8.31806974e-05
0.04681113362 0.1545540094 -0.0002779389615
0.04539641738 0.1538119316 -0.0003888931824
0.04281595349 0.1577622592 5.343381781e-05
0.0436553061 0.1528632492 -0.0002000957029
0.04598912597 0.1575889289 1.793919364e-05
0.04170510173 0.1525301039 -0.0002812176826
0.04559031129 0.1556142122 -0.000206889963
0.04092028737 0.1551268101 0.0002699172474
0.04412963986 0.1566740721 0.0001225451706
0.04346886277 0.1593122035 -0.0001843585342
0.03755709529 0.1511103064 0.0001951124868
0.04437234998 0.1581877917 6.082491018e-05
0.04545167089 0.1596771181 0.0001741038868
0.04144820571 0.1635408252 0.0001902874792
0.04405024648 0.1609719843 0.0001241852879
0.04286512733 0.161936298 0.0001078240457
0.04070052505 0.1625597775 -2.348481212e-05
0.04190167785 0.1625611484 8.821429219e-05
0.040702492 0.1645850241 0.0002540348796
0.04138407111 0.1614941061 -7.140720845e-05
0.03965720534 0.157561928 0.0001583975391
0.04235616326 0.1604519635 -0.0001598905656
0.04257485271 0.1660361141 0.0004900994827
0.03581085801 0.1516291052 -4.831177648e-06
0.03690758348 0.1594598144 0.0002493248903
0.03843685985 0.158428207 0.0001157208462
0.03673508763 0.1562027484 6.675510667e-05
0.0379820168 0.1549762785 6.994366413e-05
0.03935876489 0.1643365324 0.0001047847909
0.0377099216 0.1639233083 -6.437327829e-05
0.0386300385 0.1602394134 1.641991548e-05
0.03632631898 0.1627914011 0.0001061851508
0.03684511781 0.1527401954 9.563635103e-06
0.0319313705 0.1517192721 -0.0002779396309
0.03203222156 0.1532818675 -0.0002062348649
0.03528985381 0.1603233069 0.0003796804813
0.02933844924 0.1635426432 -0.0001628700411
0.03016361594 0.159802109 0.0001088666031
0.03283444047 0.1552880406 0.0002855933271
0.02891603112 0.1519574523 -0.0002596409468
0.0377279222 0.1536509991 3.081286559e-05
0.03440883756 0.1548342109 0.0002000605455
0.04732695222 0.1560938358 -4.407975939e-05
0.04880270362 0.1522153616 -0.0005424947594
0.04857173562 0.154388532 -0.0002906646114
0.04575803876 0.161699295 0.00038593926
0.04844650626 0.1599659771 0.0003153073485
0.05023774505 0.1531614065 -0.0005082218559
0.07337512821 0.159490332 -2.402201062e-05
0.05110386014 0.1499296725 -0.0004892087309
0.04758182168 0.1509286165 -0.0004263554001
0.0491797626 0.1566754133 0.0002145151375
0.04724416137 0.1607713401 0.0002241720213
0.04902604222 0.1613920331 0.0004300168366
0.04703560472 0.169058159 0.0002735862508
0.04772910476 0.1639223248 0.0003461834858
0.04982325435 0.1597580314 0.0003899919102
0.05153003335 0.1580289602 0.0001935643959
0.05255970359 0.1586332023 8.046475705e-05
0.04728981853 0.1590715647 0.0001579508535
0.05620225891 0.1653436124 0.0002112389193
0.05647649989 0.1640729755 7.653213106e-05
0.05756887421 0.1690070927 0.0002106139436
0.05135801435 0.1666256487 -1.969898585e-05
0.05027112365 0.158192113 0.0003631992731
0.05250152946 0.1599868983 0.0003597724135
0.05105909705 0.1568174809 -2.873138874e-05
0.05015870929 0.1515252143 -0.0005961092538
0.05341979861 0.1539300084 -0.0004545476695
0.05298653245 0.1524061114 -0.0003411204088
0.07062169909 0.1541745812 -0.0001503255044
0.07069125026 0.1619525552 0.0001076750341
0.07334091514 0.1558378041 7.597380318e-06
0.07298018783 0.1575250328 -8.532585343e-05
0.07947965711 0.1514148414 -0.0002197953872
0.07077821344 0.1647177786 -0.0001901985088
0.06534888595 0.1616783589 -9.444437455e-05
0.08256103843 0.1602475494 -6.005281466e-05
0.06989666075 0.1630887836 -0.0001323227771
0.06873431057 0.1641522348 -0.000289917225
0.06831260771 0.1626609564 -0.0001116102794
0.06708105654 0.163514182 -8.252300904e-05
0.06578543037 0.1643687785 0.0002828834695
0.0643010363 0.1697168946 -1.332053216e-05
0.06895765662 0.1585661918 0.0002093001385
0.0743490085 0.1533555239 4.780013114e-05
0.07323439419 0.1627602428 7.319397992e-05
0.08238162845 0.155721575 -0.000336410827
0.07832553238 0.1559882313 -6.11267169e-05
0.07285876572 0.1643826067 -3.179922351e-05
0.07644839585 0.166341722 3.159337211e-06
0.07381887734 0.1687428057 0.0001663574367
0.07342381775 0.1673973948 7.16453651e-05
0.07707341015 0.1680935025 -0.0003146223899
0.07515390217 0.1679892093 -1.704622991e-05
0.07821430266 0.1665623188 0.0002104047453
0.07861884683 0.1545938104 -0.0002591634984
0.0794204697 0.1569779068 -1.102878014e-05
0.08344235271 0.158806026 -0.0001160517277
0.07884504646 0.1530578285 -0.0002372293384
0.07732465118 0.1549420655 -1.007557148e-05
0.07459106296 0.155088827 1.933932072e-05
0.07990511507 0.1541099846 -0.0001460936037
0.0782912001 0.1496632248 -0.0002521015122
0.0796244964 0.1585301459 4.988751607e-05
0.08613218367 0.1593605876 -0.0001701726287
0.08589275181 0.1574051678 -9.155456792e-05
0.08774711192 0.1584003866 -9.972017142e-05
0.0892663151 0.157746911 -0.0001484769164
0.0907458812 0.162137121 -0.001542866929
0.08597148955 0.161540091 -0.0001332470274
0.09022833407 0.1605065763 -0.0008463870035
0.09009881318 0.153434366 -0.0007565943524
0.08584394306 0.1525338739 -0.0002247423108
0.08484877646 0.1586370766 -0.0001530662703
0.08420398086 0.1532693356 -0.0003713695332
0.08138867468 0.154218629 -0.0002410139714
0.08426287025 0.1564088911 -0.0002157708805
0.08427324146 0.1577192396 -0.0001603084384
0.08058842272 0.1528112739 -0.0001094966428
0.0809976086 0.1572001427 -0.0002189297229
0.08054216951 0.1603258848 0.0001592327026
0.08164801449 0.15877527 -0.0001854315342
0.08013548702 0.1555984765 -0.0002650045208
0.07887889445 0.1635824889 0.0001797374571
0.08172793686 0.1615596414 0.0002792767482
0.08283539861 0.1574483663 -0.0003099459573
0.08760197461 0.1651445627 1.674890518e-05
0.08440841734 0.165093407 0.0001974403858
0.08442469686 0.1600681841 -0.0002516222012
0.08011175692 0.1621947885 0.0003187351394
0.07879634202 0.1680554301 7.620523684e-05
0.08354248106 0.1619794518 -0.0001345284109
0.0868178159 0.1635104865 -5.030669854e-05
0.09120328724 0.1638557911 -0.001323253149
0.08930899203 0.1613802314 4.944117973e-05
0.09105922282 0.1598591506 -0.001527131768
0.08794434369 0.1623205692 5.006149877e-06
0.0877673775 0.1603827029 -4.190317122e-05
0.08598096669 0.1649858207 8.06748867e-05
0.08968259394 0.174250856 1.104897819e-06
0.09004409611 0.1769496799 0.0002093343646
0.09105350077 0.1777178645 -0.0007604926359
0.09091986716 0.1764204651 -0.0008520457195
0.09222663939 0.1690270305 -0.0005440702662
0.08969838917 0.1665013134 -0.000276058563
0.08963622153 0.1711134613 -0.0004757628194
0.08803357184 0.1706130058 0.0002745403326
0.09205432236 0.1654264778 -0.0006895958213
0.08915896714 0.1728013903 0.000146092847
0.08672447503 0.1665988564 0.0001888278639
0.0875351578 0.1695636064 0.0001993189799
0.08851970732 0.1669338048 6.029056385e-05
0.08900518715 0.1691344529 3.787974128e-05
0.08721734583 0.1777343303 0.0002687007654
0.087655738 0.175138846 0.0001842701458
0.08898301423 0.1761137545 0.0005213942495
0.07103481144 0.174329713 0.0001184962457
0.06864734739 0.171473071 0.0001466885442
0.09246446192 0.1766781658 -0.0001760395535
0.0714693889 0.1684648097 5.188665818e-05
0.08701457083 0.1716804355 0.0003832296352
0.08223159611 0.177025184 0.0001506535918
0.08774520457 0.172833994 0.0003908593208
0.08608092368 0.1761508733 0.000294121739
0.06976356357 0.1751859188 5.606061313e-05
0.06875600666 0.1731686443 0.000310065283
0.06952198595 0.1769350916 0.0001122682006
0.06671979278 0.1713033617 -4.75323759e-07
0.06603678316 0.1727936864 5.150027573e-05
0.06750472635 0.172563836 0.0003191548749
0.0665275082 0.1755414754 0.0001426364179
0.06823327392 0.1754992753 6.428611232e-05
0.06976582855 0.1739262491 4.613609053e-05
0.06431963295 0.1732046306 -0.0001501421502
0.0647104606 0.1713399291 -0.0002209827362
0.06666573137 0.1682312787 0.0001287467894
0.0702156052 0.1689357609 -8.886959404e-05
0.06907250732 0.1699267179 -1.177075319e-05
0.07035484165 0.1706979424 -2.634391421e-05
0.06878199428 0.1743671745 0.0001301787561
0.07197817415 0.1713556945 1.849257387e-06
0.06848790497 0.168555066 1.877627801e-05
0.07077469677 0.1665047556 -3.274763003e-07
0.0695406422 0.1674003899 3.323017154e-05
0.07238943875 0.1660132557 9.799026884e-05
0.06915041059 0.1657862067 1.895445166e-05
0.07080545276 0.1677388102 1.621310366e-05
0.06575896591 0.1662513316 0.0002221766044
0.06781139225 0.1668815762 0.0001153055928
0.06735362858 0.1651535034 2.42292881e-05
0.06576194614 0.1697499156 -5.30470279e-05
0.06308736652 0.1704054773 -0.0001295494149
0.06458690017 0.1681098342 4.747585626e-05
0.06757398695 0.1698959172 -8.571031503e-05
0.06332590431 0.1690504849 1.9678846e-06
0.06569536775 0.1781504303 -0.0002625851484
0.06263264269 0.167784512 2.017681254e-05
0.06156267971 0.1659581363 -0.0002279279579
0.05751469359 0.1676149964 6.812869105e-05
0.0585837625 0.1650128812 0.0001994073391
0.05599525198 0.1687898338 8.934823563e-05
0.05977358669 0.1708359718 -6.261331146e-05
0.0633077845 0.1786631197 -0.0004128483124
0.06144406646 0.173932299 0.000105710933
0.06070484966 0.1759305447 4.110002192e-05
0.06065752357 0.1801889539 -0.0001781546744
0.05865969881 0.1823454946 -0.0007605213323
0.05759361014 0.1802853942 -0.0003790819028
0.05875208601 0.17582798 0.0002459909301
0.05954392999 0.177657634 0.0002326399554
0.05768331513 0.1758832783 0.0003886844497
0.05773707852 0.1747332662 0.0004365169443
0.05693086609 0.1781862527 -2.506060991e-05
0.05627092347 0.1737511009 0.0003358444665
0.05417909846 0.1711998731 4.747655476e-05
0.05821343884 0.1714333743 0.0003113165731
0.04282703996 0.1724383682 0.0003966408549
0.0560236834 0.1669310331 0.0002010469325
0.0418433249 0.1710787565 0.0003123893985
0.03984925151 0.1740413159 0.000139894255
0.04534491897 0.1708011627 0.0005101872957
0.02811280638 0.178647235 0.0005649956292
0.04243341088 0.1778274328 0.0002312392462
0.04254212976 0.1695224345 0.0003072927939
0.04122498631 0.1658612192 0.0003458263236
0.03569218516 0.1724623591 6.27952395e-05
0.04390028119 0.184295401 2.372724703e-05
0.03609934449 0.1838330775 -0.0001266255858
0.03620281816 0.1669588834 0.0001148288138
0.03116682172 0.1702724695 0.0002653909032
0.03353753686 0.1750502139 -3.820419079e-05
0.03969410062 0.1684654802 0.0002537079854
0.04596677423 0.1696647555 0.0004605363938
0.0338229239 0.1699145734 0.0001299988944
0.03343209624 0.1682070643 2.62268004e-05
0.03230431676 0.1692843586 0.0002066800953
0.04620054364 0.1653122604 8.347636322e-05
0.04857984185 0.1694796532 0.0004152964102
0.04841634631 0.1653715819 0.0001373589621
0.05084660649 0.1679055244 -0.0001024299127
0.0530757606 0.1663104743 -4.354090197e-05
0.0569925569 0.1721042842 0.0004060285282
0.04942402244 0.1669424772 -9.873465751e-05
0.05472477898 0.1658690572 1.305359183e-05
0.06003495306 0.1645566672 0.0001182256965
0.05749228224 0.1645221412 0.0002016125945
0.0574750565 0.1660043746 0.0002037289087
0.05922075734 0.1665111631 -0.0001625713194
0.05539628491 0.1703645736 1.30845001e-05
0.05076023936 0.1722778678 0.0002747791586
0.05023601651 0.1737366468 0.0001454076264
0.05258116126 0.1721724421 0.0002205090714
0.05117639899 0.1692253351 0.0001093755127
0.04856589437 0.1782916039 0.0003086359939
0.05416008458 0.1808974296 -0.0003725252463
0.05288353562 0.1761700213 0.0002241757466
0.05440714583 0.1731097251 0.0002770741121
0.0554167293 0.1775042713 0.0001353353146
0.05465158448 0.1754323691 0.0003259505029
0.07234086096 0.1731624454 0.000156523718
0.05295756459 0.1742185354 0.0002143703168
0.07677043974 0.1778140068 -0.0001267164189
0.07043101639 0.1726105213 0.0001306551858
0.07811821997 0.1785615087 -0.0002507237077
0.0726044327 0.1685954928 6.482092431e-05
0.07651908696 0.1719499528 0.0003374533262
0.07264997065 0.1750146002 0.0001068735146
0.07446022332 0.1758597344 -7.602313417e-05
0.07350696623 0.1788233966 -0.0002028909221
0.07429052889 0.1774871945 -0.0002074211952
0.07559449971 0.171106562 0.0003772690543
0.08186204731 0.1740559787 0.0003753326018
0.08023764193 0.1737808287 0.0001842996571
0.07829518616 0.1769229621 2.661632607e-05
0.0761987716 0.1696052998 8.663645713e-05
0.07852597535 0.1735209227 0.0001239796984
0.07749892771 0.1749056876 9.888643399e-05
0.07783992589 0.1720289886 0.0001083927345
0.07689352334 0.173231408 0.0002324004308
0.07575757802 0.1744511724 0.000215592212
0.0744331032 0.1657848805 -1.45433587e-05
0.07788361609 0.1694787592 0.0001147995936
0.07707889378 0.1708186269 0.0002647950314
0.07876004279 0.1707413495 0.0001056207693
0.079584077 0.1693128496 0.0001949975849
0.07991744578 0.1666487902 0.0001713041565
0.08307857811 0.1668768823 0.0003853146336
0.07194229215 0.1674230546 5.918799434e-05
0.07164784521 0.1696879417 1.323333709e-05
0.07464624941 0.1698620319 0.0001604568679
0.07311476767 0.169997111 0.0001198959071
0.08590699732 0.1743816286 0.0001994691556
0.08020551503 0.1679907292 0.000183732016
0.07940210402 0.1651098579 0.0002685785294
0.08267076313 0.1730592549 0.0002920944826
0.08429373801 0.1732013226 0.0002639014856
0.08396060765 0.1662575454 0.000297665887
0.08561475575 0.168076992 0.0003558404278
0.0873528868 0.1682651937 0.0001448996481
0.08531816304 0.1697490066 0.0002725135419
0.08447797596 0.1763325334 0.0005198744475
0.08405478299 0.1688947231 0.0002146372572
0.08369363844 0.1770273894 0.0002326397807
0.08517040312 0.17141442 0.0003007665509
0.08442975581 0.174969852 0.0004853630089
0.08318836987 0.1741578877 0.000362308987
0.08296026289 0.1755812764 0.0004316891427
0.08123852313 0.168813169 0.0002118357806
0.07955612242 0.172172159 0.000131638546
0.09847195446 0.1746801287 7.006753003e-05
0.09945257008 0.1758847535 0.0003384973388
0.09240438044 0.1734388471 -0.0002705137013
0.09591926634 0.1729347855 -0.0002476852096
0.09102572501 0.1750508547 -0.0009019350982
0.09094913304 0.1672241539 -0.001403480303
0.08998437226 0.1756177545 7.07830186e-05
0.09047450125 0.172987625 -0.001308141276
0.09414155781 0.1721076518 -0.0006959123421
0.09053362906 0.1693973839 -0.00148692634
0.09758271277 0.1583221555 1.904205419e-05
0.08927150071 0.1545265317 -0.0001818264718
0.09119929373 0.1529788077 -0.001632097177
0.08997030556 0.1505879462 -0.0008335744496
0.09088917077 0.1547151059 -0.001745464979
0.09050215781 0.1575187594 -0.00130132027
0.09172196686 0.1574504226 -0.001197161153
0.09012229741 0.1589643806 -0.000874491001
0.09006221592 0.1520972997 -0.0007980198716
0.0913438946 0.1586310416 -0.001442672336
0.09151305258 0.1611033827 -0.001230270602
0.09513367712 0.1691926569 -0.0001482953667
0.09130962193 0.1563115865 -0.001392634818
0.09149254858 0.151176542 -0.001381847542
0.09441049397 0.1566466391 -0.001279087854
0.09763462842 0.1667929739 0.0003941063187
0.09173114598 0.1711622924 -0.000801859831
0.09303553402 0.1640231758 -0.0002043845598
0.09404720366 0.1626518071 -0.0008334225276
0.09271927178 0.1565216184 -0.0008581301081
0.09426356852 0.1596629322 -0.0009921503952
0.09313853085 0.1581182778 -0.0009009854402
0.09549166262 0.1579039991 -0.0008052306948
0.09572602808 0.1564035863 -0.0005827864516
0.09366948903 0.1552848816 -0.001029404346
0.09445013106 0.1538310647 -0.001174065168
0.09514673054 0.1553208679 -0.0009114765562
0.0958892256 0.1543797404 -0.000543090282
0.1016318351 0.1509317011 -0.0001601908589
0.09684462845 0.1516872942 -0.0003265174455
0.09569318593 0.1505557597 -0.001020971453
0.09615983069 0.1531798989 -0.0004183678248
0.09772147238 0.1529541612 -0.0001290171349
0.1022721082 0.1639053375 0.0001244840096
0.09591419995 0.1595023274 -0.0003300322569
0.0929005295 0.167246893 -0.0003346199519
0.1009696871 0.1667457521 0.0003308359883
0.09767182171 0.1685604155 0.000377179007
0.09646953642 0.1694004685 0.000239820336
0.09569968283 0.1645617634 -0.0002755523892
0.09462942183 0.1675491631 -0.0005666905781
0.09761680663 0.1702359468 0.0002823186223
0.09747131169 0.1720253229 0.0001289861393
0.09453947842 0.1760592014 -0.0005412373575
0.09394802153 0.1702103019 -0.0006221818621
0.09441359341 0.1640443206 -0.0009701552335
0.09386862814 0.1686739624 -0.0007962575764
0.09542037547 0.1629857272 -0.0003845398605
0.1005459577 0.1696857214 0.0004678379628
0.09654600918 0.1761782765 1.192360651e-05
0.09913106263 0.167574808 0.0003578966716
0.09905923903 0.1692777574 0.0004328499199
0.09596677125 0.1662360728 5.543523002e-06
0.09603579342 0.1746820956 -0.0001648045436
0.09800721705 0.1761126071 0.0002554979292
0.1025342494 0.1741878986 0.0006198904593
0.1016275436 0.1684399992 0.0005028851447
0.1038534194 0.1716135144 0.0007255093078
0.1028790027 0.1706231982 0.000814439205
0.1002296358 0.1683451384 0.0004706092295
0.1184522584 0.1646154523 0.0008109509363
0.1158267334 0.1731578112 0.0004541297094
0.1160227135 0.1663451344 0.0005500915577
0.1140106991 0.1620318443 0.0006737403455
0.1138559058 0.1640174538 0.0003687439021
0.1189133599 0.1664442569 0.0004575256025
0.1171455458 0.1672724783 0.0004467969411
0.1156762913 0.1648969501 0.0007116495981
0.1196090654 0.1636316925 0.0006794032524
0.1157737449 0.1714887023 0.0005591229419
0.1143080071 0.17237553 0.000373722869
0.1147750691 0.1688199937 0.0005767652183
0.1154050305 0.1700525135 0.0006850672071
0.1185458377 0.1686142981 0.0006114849239
0.1223331764 0.1713386923 0.0009235158213
0.1131814197 0.1686786562 0.0005176076083
0.1124634817 0.1654506922 0.0004401804181
0.1096688583 0.1644139439 0.000234216277
0.123113282 0.1674672961 0.000703126716
0.1218734458 0.1618616134 0.0004121951642
0.1190547422 0.1705302447 0.0007357908762
0.1196354702 0.1721089929 0.0007244067383
0.1197012141 0.1650588661 0.000456392765
0.1207019165 0.1659630537 0.0002644064371
0.1238635853 0.1645393074 0.0003489850787
0.1237120703 0.1721019149 0.001197488746
0.1252751946 0.1712124348 0.001213194337
0.1219861582 0.1682569087 0.0008607216296
0.1204686835 0.167607218 0.0004575556377
0.1208257154 0.1708444655 0.0009000612772
0.1222409084 0.1652147323 0.0003399253474
0.1252899766 0.1691186726 0.0009565065266
0.1243630126 0.1606356055 0.000756262627
0.1254818439 0.1589362323 0.0007705971948
0.1230317429 0.1617408842 0.0004636935191
0.1241538599 0.1627388448 0.0005306000239
0.1224222854 0.1633389145 0.0002914067009
0.1209145263 0.1643808633 0.0003578661126
0.1162661985 0.1552067995 0.000109103974
0.1207912043 0.1538124233 0.0004805597127
0.1223543361 0.1528870314 0.0003165275557
0.120605059 0.1596174538 0.0005873726332
0.1188159063 0.1529211849 0.000594970712
0.1206661537 0.1522447169 0.0004384487402
0.1193145588 0.1513655633 0.0003764000721
0.1206250861 0.1509780288 0.0002128448104
0.1179031804 0.1555059999 0.000136820192
0.1268519163 0.155241251 0.0003652251326
0.1269029975 0.153514415 0.0002027126611
0.1236276701 0.1580467969 0.0006770176697
0.1226271465 0.1547732204 0.0003039514413
0.1173784211 0.1541348696 0.0003560755285
0.1167947724 0.1564628929 0.0001565793646
0.1176365092 0.1515335292 0.0004908410483
0.1133142784 0.1538178921 3.063410986e-05
0.1155148223 0.1561759412 0.0001199522521
0.114714928 0.1524878889 0.0003147393581
0.1158977821 0.1514027119 0.000376668293
0.1154570654 0.1539256871 0.0002816590713
0.11662931 0.1527449936 0.0005345910904
0.11287231 0.157452479 0.0001996141509
0.1146028712 0.1552468538 9.441142902e-05
0.1171759441 0.157887876 0.0004098696518
0.1142985895 0.1567088664 0.0002016703365
0.1112456471 0.1565094739 2.729689004e-05
0.1114596799 0.1586069763 -6.37921039e-06
0.1108741239 0.166582182 0.0005383495591
0.1154506877 0.1630842835 0.0006684059626
0.1139543727 0.1600939035 0.0006952571566
0.1169508174 0.1639090776 0.0007972416352
0.1181460097 0.162639007 0.0008231098182
0.1108350232 0.1648821533 0.0002765356912
0.1084801108 0.1657889187 0.0003123285132
0.1081771925 0.1681183428 0.0004615493235
0.1076641828 0.166565612 0.0003011826193
0.1064490825 0.1673743576 0.0002928083995
0.1082000285 0.1516581327 1.084484393e-05
0.1093108207 0.1552272886 -0.0001809024543
0.106096223 0.1597135812 6.1063678e-05
0.1129152849 0.1557136178 0.0002038456732
0.1113349348 0.1528681815 -0.0001298218267
0.1095879823 0.1574990153 -4.351319512e-05
0.111068204 0.1510505378 -9.620524361e-05
0.1129056364 0.1519424915 1.01296464e-05
0.1096265465 0.1522548944 -0.0001578957599
0.1077355295 0.1566244364 -8.374653407e-05
0.1049972326 0.1513440013 3.122957423e-05
0.1007770449 0.1597399563 7.825961802e-05
0.1050509959 0.1643099487 0.0002482233685
0.1024896055 0.1653478891 0.0001403689967
0.1046202928 0.1702596992 0.0007790935342
0.1031650454 0.1690559983 0.0006218264461
0.1066311151 0.1686558127 0.0005355784087
0.1049806625 0.1683558077 0.0004243858857
0.1050316244 0.1666088998 0.0001470748102
0.1063465029 0.1708999276 0.0005148066557
0.1040398628 0.173177287 0.0006596763269
0.1099851206 0.1732020825 0.0006911773817
0.1124065593 0.1732285917 0.0004159827367
0.1018783003 0.1697604209 0.000653208408
0.1613786221 0.1640749574 0.0007993874024
0.1551913023 0.1638255715 0.001030444866
0.1532946229 0.1663808972 0.0009129646351
0.1501379013 0.1652381569 0.0009726882563
0.1499345899 0.1667933017 0.001296341885
0.1514359713 0.1665164381 0.001046806807
0.1486548781 0.1672181487 0.001335591543
0.1455706954 0.1624790132 0.0009398155962
0.1501013637 0.159891814 0.0008752929862
0.1505185962 0.1586538404 0.0008237942238
0.1503652334 0.16349262 0.000689386914
0.1506075859 0.1614684165 0.0006586900563
0.151464045 0.159848392 0.0007171916659
0.1519044638 0.1585831642 0.0008101745625
0.1529659629 0.1595555097 0.0006544576609
0.15442276 0.1592307687 0.0007691369974
0.1556645632 0.1618475616 0.000887512404
0.1541441083 0.1607806683 0.0008281161427
0.1538702846 0.1625096202 0.0007160299574
0.1559993625 0.1567433923 0.0008496025694
0.154314816 0.1559434086 0.0004788019578
0.156060338 0.1551138163 0.0008646821952
0.152535975 0.1611920893 0.0006870022626
0.1535382271 0.1643912643 0.000591784541
0.1641719341 0.1647546589 0.0007414221182
0.1572849751 0.1560540199 0.00119888573
0.1641954184 0.1575833857 0.001081315801
0.164295733 0.1527873278 0.0009117990849
0.1588724852 0.1552981138 0.001213637646
0.157399714 0.1546713114 0.001023826422
0.1548221111 0.1539185792 0.0007175180945
0.1529072523 0.1508879215 0.0009372200002
0.1623542905 0.1568385959 0.001098988578
0.1554222703 0.1522213519 0.001028534723
0.1519409418 0.1559493244 0.0002651789109
0.1446852684 0.1542769969 0.0001356874127
0.1512162089 0.1574288309 0.0007199328975
0.1531590819 0.1577724069 0.0003991109552
0.1549928188 0.1578130126 0.0007391257095
0.1520390511 0.1532164216 0.0007502408116
0.1651028395 0.1513848603 0.0009303656989
0.1620138884 0.1502043009 0.0009336734074
0.1642403007 0.1557772607 0.000932154886
0.1657842398 0.157264173 0.001115469262
0.1674901843 0.1567407995 0.001071808627
0.1678251624 0.1551032662 0.0008790469146
0.1651206017 0.1541998833 0.0008770201239
0.1665714383 0.1638372093 0.0008375641773
0.1657880545 0.1527558863 0.001030084444
0.1663869619 0.1515430808 0.0008884338313
0.1689831018 0.1517319977 0.0009017554694
0.1672786474 0.1524211615 0.0009153753635
0.1689049602 0.1561086923 0.0007635333459
0.1667066813 0.1539636552 0.0009583208594
0.1690560579 0.1576172262 0.0009167176322
0.1698765159 0.1621828973 0.0008469217573
0.1692612171 0.1591746956 0.001016913448
0.1657360792 0.1607935429 0.0007949461578
0.1636360288 0.1617833972 0.001174359815
0.1642740965 0.1604385525 0.0009509910014
0.1655196548 0.1646750867 0.0007939636125
0.166777432 0.1600750685 0.0006975221331
0.1674249172 0.1586621255 0.001001863042
0.168428719 0.1606308967 0.0007233012584
0.1661680937 0.1622362733 0.0008773201262
0.1649393439 0.1616803706 0.001078426139
0.1628869176 0.1633399576 0.001077532303
0.1428542733 0.1661124229 0.0008223059704
0.1235086992 0.166213274 0.0004289451172
0.1317400932 0.1700534672 0.0009881865699
0.1270052195 0.1683301628 0.0006874509272
0.1324548125 0.169084698 0.001009822823
0.1354775429 0.1633309126 0.001000135671
0.1362719536 0.1598641872 0.0007923829253
0.1356929541 0.1585470885 0.0006243272801
0.129722774 0.1660743803 0.0007827880909
0.1282137632 0.1654323488 0.0007164478884
0.1325255036 0.1652850807 0.001165688038
0.1299202442 0.1679756492 0.0005868083681
0.1302468777 0.1598466635 0.0008128869231
0.1472253203 0.1666691601 0.00105848955
0.1271089911 0.1704104096 0.0008436155622
0.1283899546 0.1672671288 0.0007355516427
0.1309998631 0.1647912264 0.001158058643
0.1254056692 0.1639496088 0.0006746050785
0.1252584457 0.1658665389 0.0004652442294
0.1274582744 0.1577509344 0.0006040019798
0.1257975698 0.1674687266 0.0005848711007
0.126907289 0.1665393263 0.0006667975686
0.1244376376 0.1674793214 0.000516951608
0.1257205009 0.1622387618 0.0007967048441
0.12951684 0.1641901881 0.0006170569104
0.1307966709 0.1632382572 0.0006152983406
0.1316186786 0.158152163 0.0008166713524
0.1279784441 0.1636675149 0.0006240603398
0.1267374158 0.1648207009 0.0006107985391
0.1266314387 0.1633722037 0.0007720585563
0.1244845465 0.1564969867 0.000411210407
0.1285247207 0.1587415636 0.0008932337514
0.1337358952 0.1581456959 0.0003588481341
0.1327428818 0.1523665041 0.0007413894054
0.1308607459 0.156462267 0.0009392479551
0.1281712651 0.1523827165 0.0002988248598
0.1256516576 0.1543603539 9.581190534e-05
0.1324902177 0.1566148847 0.0004179457319
0.1263381243 0.1605785787 0.0008249867824
0.1313635707 0.1531718075 0.0009444923489
0.1379327178 0.1522834003 0.0005534260417
0.1255574822 0.1558741182 0.0003558673197
0.1264413595 0.1515323818 -1.138768857e-05
0.1263458133 0.1579813361 0.0006322843838
0.1265537739 0.1567492038 0.0005977133405
0.128569901 0.1574255675 0.0007545631961
0.1317782998 0.1514572054 0.0007499126368
0.1305882931 0.1518831551 0.0006201832439
0.1330552101 0.1537465304 0.000708547479
0.1334338784 0.155296877 0.0003277040087
0.1373855472 0.1560346335 0.000698743097
0.1332369447 0.1510062218 0.0006163683138
0.1347908378 0.1505779922 0.0004108513822
0.1347044706 0.1542325467 0.0003908846993
0.134942174 0.1557330787 0.0001874245936
0.1344086528 0.1524132341 0.0004790097591
0.1346809268 0.1599654853 0.0006441163714
0.1362220645 0.151500091 0.0004845527583
0.1352213621 0.1571177095 0.0002837757929
0.1361188293 0.1562381238 0.0004661658313
0.1358482838 0.1613924205 0.000919996819
0.1362582445 0.154978931 0.0003198361374
0.1367216706 0.1573649049 0.0006991606788
0.1486915946 0.1641243398 0.0007030366105
0.1465812922 0.1577323824 0.0004811568069
0.1487830877 0.1623703688 0.0007803433691
0.1489716172 0.1590399295 0.0008739516488
0.1453278065 0.1607524902 0.0007354011177
0.1406093836 0.1677832901 0.000721306249
0.1470881104 0.1595200002 0.0007667826139
0.147187531 0.1648736149 0.0007489323034
0.1471574306 0.1631965488 0.0008571143844
0.1486092806 0.1657627821 0.001176834339
0.1487966776 0.1606192291 0.0009236622718
0.1425818205 0.1633116007 0.0007934864261
0.1434804797 0.1647461802 0.0006941854372
0.1457862258 0.1657143533 0.000514477666
0.1446883082 0.1647766083 0.0006119608297
0.1471147537 0.1614771485 0.00105935242
0.1434835792 0.1601834744 0.0005977142719
0.1419404149 0.161318779 0.0009753397317
0.1442894936 0.1660877019 0.0006378891994
0.1442916989 0.1635172665 0.0006937380531
0.1436399221 0.1673328131 0.0006646817201
0.1371764541 0.1626401842 0.001071929466
0.1438649297 0.1619317681 0.0006234638277
0.1454749703 0.1679698676 0.0006898349966
0.1402133703 0.1617120504 0.001060842769
0.140361011 0.1582618803 0.0006447716733
0.1391803026 0.1608001441 0.0009326924919
0.141857326 0.1594420373 0.0005409704172
0.1388990283 0.1593603492 0.0008378015482
0.1421391368 0.1559684426 0.0003359892289
0.139659524 0.1531741619 0.0007614166825
0.1419785023 0.1578121483 0.0003416520776
0.137988925 0.1543664187 0.0006371413474
0.1407830715 0.1557216942 0.0006668544956
0.1398655772 0.1565149277 0.0008200982702
0.1376460791 0.1606927663 0.001029758714
0.1373140812 0.1588541418 0.0008774385205
0.1386876702 0.1558544487 0.000897673599
0.1384769678 0.1574478 0.0006956738071
0.1396886706 0.1549698263 0.0008285319782
0.03091499209 0.1687398404 0.0002588638454
0.03027185798 0.1727021486 0.0002346950932
0.02567253262 0.1700156927 2.312776633e-05
0.02977231145 0.1683291197 0.0004769571242
0.03066787124 0.161272645 1.707585761e-05
0.0325974524 0.1709578782 0.0002453639172
0.03058877587 0.1673461199 0.0003694003099
0.02617875487 0.1597386599 -0.0001954151085
0.02333191782 0.1487993151 -0.0006116965669
0.02386835963 0.1470882595 -0.0005069120089
0.0270312801 0.1465366334 -0.0003944083583
0.02440641075 0.1451625526 -0.0003108429664
0.02544186264 0.146686554 -0.0004177137162
0.02559540421 0.1508814096 -0.0006436441327
0.02558103949 0.1546008289 -0.0003018106217
0.0213143006 0.1505444646 -0.0007615422364
0.02437845618 0.1499849409 -0.0006586349336
0.03098347783 0.1484362632 -0.0002776423935
0.02933719754 0.1620181352 -0.0001439459447
0.02951648831 0.1561655402 -4.494402674e-05
0.03207686543 0.1577291936 0.0003759247484
0.031172961 0.1464635283 -0.0004867061507
0.02962694317 0.1419252753 -0.0002784188255
0.03204993159 0.1432141811 -0.000469928229
0.03094092011 0.1628502011 -1.049094135e-05
0.03373619914 0.1610622257 0.0002794256434
0.033351928 0.1538914591 3.418058623e-05
0.02660785615 0.1344880313 -0.0005210412783
0.02337656915 0.1315892488 -0.0008199592703
0.02004234493 0.138686493 -0.0007954600733
0.0216986984 0.1412099004 -0.0006804821314
0.0229536742 0.133119747 -0.0007568376022
0.02169333398 0.1325519681 -0.0009201842477
0.02184538543 0.143190518 -0.000622724765
0.02080272138 0.1347548664 -0.0008137298282
0.01832072437 0.1268437952 -0.0004644485016
0.01821117103 0.1241467297 -0.0008170702495
0.01894818246 0.1293741614 -0.0007754649268
0.01897679269 0.1255332977 -0.0004720782163
0.02346478403 0.1247771978 -0.00104169012
0.01956449449 0.1267131418 -0.0002348812413
0.02155272663 0.124387607 -0.0009766615694
0.02425597608 0.1265117228 -0.0008931847988
0.02459715307 0.1302162111 -0.0007887267275
0.02160428464 0.1309852898 -0.0009279630613
0.02524964511 0.1279132515 -0.0007106452249
0.02789478004 0.1239885837 -0.0005339183845
0.02934268862 0.1291600764 -0.0008998598787
0.02892444283 0.1307049245 -0.0006799779949
0.02661810815 0.1286974251 -0.0006445733015
0.02622018754 0.123817116 -0.000804255309
0.02674977481 0.125431329 -0.0005063210847
0.02796374261 0.1340767145 -0.0006275250926
0.02616398036 0.1300953478 -0.0007734977989
0.0306629315 0.1287960112 -0.0009403910954
0.03063396364 0.1260218173 -0.0007564816624
0.03288374096 0.1238368303 -0.0007953146123
0.03174535185 0.1308845133 -0.0006536326837
0.03190068156 0.1341843754 -0.0006871594815
0.02999339253 0.1337228119 -0.0005875602365
0.03077176958 0.1356237084 -0.0005221735337
0.03046939522 0.1301254183 -0.0007846736698
0.03022960573 0.1317255646 -0.0006592352875
0.03133133799 0.1390341967 -0.0001652600768
0.0324029699 0.1357998848 -0.0008213291876
0.03309527785 0.137308538 -0.0005085534649
0.03308001906 0.1441662312 -0.0004609872994
0.03284410387 0.141814664 -0.0003854687675
0.02806191146 0.1420584619 -0.0003659779904
0.03126130253 0.1418534815 -0.0003718491062
0.0301341787 0.1386224031 -0.0001213017676
0.03045640141 0.1434762925 -0.0003944686905
0.02739612758 0.135377571 -0.0005950998748
0.02881804854 0.1378716528 -0.0005184476613
0.02661554515 0.1424824744 -0.0005635672715
0.03001276404 0.1370435953 -0.0003535814467
0.02879623324 0.1400664896 -0.0002162218152
0.02892033011 0.135770306 -0.0005194912665
0.02740965784 0.1388372183 -0.0007127288263
0.02884087712 0.1435745209 -0.0003382018767
0.02966234088 0.1453079432 -0.0004667686881
0.02792421728 0.1450082064 -0.0004026043462
0.02840581536 0.1464738995 -0.0004662617575
0.02751098573 0.1435422003 -0.0004624477588
0.02488313615 0.1428544223 -0.0004426591913
0.02325354517 0.1419802457 -0.0007302219747
0.02711848915 0.1407243162 -0.00053036795
0.02646271884 0.1329738051 -0.000604190107
0.02604554594 0.1378373206 -0.0007487302646
0.02320949733 0.1439578533 -0.0004742791934
0.02585856616 0.1412732005 -0.0007107314887
0.02598302066 0.1396835595 -0.0007944167592
0.02624158561 0.1445946544 -0.0003555465955
0.02317456901 0.1399793178 -0.0007476270548
0.02446322143 0.132987842 -0.0005756096798
0.0245821327 0.1370601207 -0.0006753869238
0.02537100017 0.1315045208 -0.0007113000611
0.02519361675 0.125107944 -0.0008591806982
0.02524350584 0.1343676895 -0.0005744470982
0.02567659318 0.1264489591 -0.0005995723186
0.06442221999 0.08920823038 0.03849850222
0.07576522231 0.05587138236 0.02424058691
0.06093904749 0.08712592721 0.03234903142
0.1083720475 0.1103655845 0.0356615074
0.1088444144 0.1117641553 0.0364519842
0.01819264144 0.04355323687 -0.002187370323
0.01837193221 0.04501564801 -0.00203338149
0.01698981971 0.04450018704 -0.00201618555
0.1248390228 0.1018250883 0.006306245923
0.124751702 0.1006576121 0.005955591332
0.1253848821 0.1013914347 0.00507389009
0.101280421 0.02564099617 -0.001945409691
0.1026142538 0.02368073352 -0.00104833045
0.1044012606 0.02601711638 -0.0005753074074
0.0380539 0.1620990634 1.585413702e-05
0.01962255687 0.04555915296 -0.001917629037
0.01370894164 0.0353728272 -0.002077997895
0.0151995346 0.03390965611 -0.002236665692
0.01570736617 0.03607558087 -0.002213419415
0.01813363284 0.04227435961 -0.002113639843
0.01728533953 0.04123607278 -0.001938164001
0.0191032812 0.04105709866 -0.002150863176
0.01261543483 0.06369424611 -0.001333946362
0.008101277053 0.02884327434 -0.001876774011
0.0066261217 0.02861482464 -0.001963290386
0.001252532005 0.03152478114 -0.002104940126
0.060452912 0.08375889063 0.02400861122
0.0602359511 0.0858752653 0.02786825038
0.05805382878 0.08690208942 0.02518520877
0.068485111 0.08655416965 0.03549350426
0.06764194369 0.08786489815 0.03694654629
0.06660816073 0.08718646318 0.03600109741
0.07326075435 0.09238281846 0.0343451649
0.07394906878 0.09392368793 0.0351100117
0.07215300202 0.09366703033 0.03393347561
0.07385787368 0.09609736502 0.03614662588
0.07840368897 0.01897102967 0.004630620591
0.07823864371 0.01484673098 0.002150976565
0.08167944103 0.01691536978 0.004361654166
0.07406660914 0.08701647818 0.0629934147
0.07398870587 0.08663281798 0.06132278964
0.07261613011 0.088505283 0.05478141829
0.07310584188 0.09079964459 0.05493353307
0.08254013211 0.02703806572 0.01103794295
0.07830695063 0.03185359389 0.0127268713
0.07764837891 0.0227856636 0.006760355085
0.1003953516 0.06147329882 0.01308993064
0.09931501746 0.06280193478 0.01141977869
0.1011092365 0.06256826222 0.01034853421
0.09342440963 0.06639305502 0.03448037058
0.09984305501 0.01989888027 -0.0001779246668
0.09955182672 0.02152665332 -0.0003422244918
0.09430894256 0.06505131721 0.0342188552
0.08374425769 0.05803267285 0.03207856789
0.08262744546 0.0586723052 0.03171450272
0.0823918879 0.05745824799 0.03059545532
0.08250692487 0.05993555114 0.03240228444
0.08353742957 0.06054371223 0.03310207278
0.09110155702 0.07153180987 0.03555441648
0.08274099231 0.1110477 0.01287500747
0.08341315389 0.1115843207 0.01690386422
0.1070220023 0.1113567352 0.03629483655
0.1057940274 0.1101158559 0.03624569252
0.07855954766 0.1179107428 0.03600903228
0.07913759351 0.1177155375 0.03388344124
0.08151724935 0.1109901071 0.02001606114
0.08203330636 0.1125839651 0.02112741955
0.08235523105 0.1122623086 0.01922829635
0.07361266017 0.09530062228 0.001602036878
0.07800862193 0.1042212248 0.006830230821
0.07929340005 0.1059696674 0.007593885995
0.07980367541 0.1050261185 0.00544025097
0.04832891375 0.1152438223 -0.0006469010841
0.04821310192 0.117137894 -0.0006284529809
0.04615894705 0.1177497655 -0.000569056836
0.04745648056 0.1189702153 -0.0005520394188
0.03736482561 0.04645601287 -0.001284240163
0.03713272512 0.03484711796 -0.002356113167
0.06006751582 0.02839284763 -0.0005683628842
0.06108979508 0.03122864291 0.001276371768
0.04746000469 0.06787893921 0.0008803969831
0.04585520923 0.03526926786 -0.002121121855
0.04413031042 0.03640095145 -0.00224030111
0.0456173867 0.03317565471 -0.001933725318
0.0378080532 0.01558543742 -0.003343736986
0.03848885745 0.01752968132 -0.002796834102
0.04826287925 0.03338759392 -0.002564461669
0.04761086404 0.03633321077 -0.002309651114
0.04708199203 0.02208971791 -0.002376262564
0.04879365861 0.02321791276 -0.002403442049
0.05031143129 0.02169751935 -0.002095048083
0.0513959378 0.02450108156 -0.00238064304
0.04555825889 0.0576903671 -0.0007333117537
0.04344676435 0.05734612048 -0.00134679256
0.04483537376 0.05603674799 -0.001346793026
0.1011753976 0.01226238161 -0.001979089342
0.09998473525 0.01070048288 -0.0003510783426
0.06084284931 0.04729071632 0.008057983592
0.05582032725 0.04539296404 0.00383472559
0.0601163283 0.04096869379 0.004256546963
0.1077069938 0.01576266438 -0.0005068538594
0.1163821518 0.01169427484 -4.107435234e-05
0.1159536541 0.01662196964 -0.0004129465669
0.09076413512 0.06431718171 0.004719680641
0.08034214377 0.1043582633 0.003602609271
0.08055964112 0.1104336083 0.01319171675
0.0792260468 0.1090644598 0.01197250374
0.07641395926 0.1079995036 0.01265533455
0.07655563951 0.1090961322 0.01385997422
0.07750841975 0.1075466052 0.01142267976
0.07781305909 0.1100986004 0.0141408015
0.07902678847 0.110343188 0.01363803633
0.09031351656 0.1188815087 0.01368846372
0.08803578466 0.1146476865 0.01246579271
0.08694466203 0.1184605807 0.01602270082
0.1200776324 0.04333932698 0.0002219982562
0.1054581106 0.04617192969 0.002186269965
0.1061289012 0.04516170546 0.00166472909
0.1086716875 0.0452969335 0.0021589112
0.1258679181 0.100961417 0.003999128938
0.1260418445 0.09986682236 0.003293737071
0.1247685701 0.1057854295 0.004772202112
0.04897539318 0.03828393668 -0.001446277369
0.05206058919 0.03770326823 -0.00123113452
0.05061213672 0.04013799876 -0.0008903443813
0.04978392273 0.08434254676 0.003452102887
0.1046810448 0.05475726724 0.03307724372
0.105518423 0.05433034897 0.0305164773
0.1013107598 0.05963945761 0.01608294621
0.103311561 0.05803934112 0.01720601693
0.1018111333 0.0570149757 0.01922774687
0.1235485822 0.1072381884 0.004892663565
0.1233366877 0.1081350893 0.003088132711
0.1347991973 0.05219376087 -0.000405576895
0.136484161 0.05052396655 -0.0008221541648
0.1047667488 0.05790284276 0.0335646607
0.1059178337 0.05845003575 0.03431868926
0.1296390444 0.07743528485 0.004062542692
0.1300584823 0.07607004046 0.003275790485
0.1214369684 0.1104868501 0.008230911568
