# .PCD v0.7 - Point Cloud Data file format
VERSION 0.7
FIELDS x y z
SIZE 4 4 4
TYPE F F F
COUNT 1 1 1
WIDTH 1329
HEIGHT 1
VIEWPOINT 0 0 0 1 0 0 0
POINTS 1329
DATA ascii
-15.66384888 55.83417892 3.760978699
36.29319382 55.27664948 9.530282974
36.97396469 54.70245743 11.70316696
-4.401390076 58.64554977 3.736865997
-4.898452759 57.05807877 3.663970947
-14.52374268 54.70858002 4.044139862
-13.53637695 54.04467392 4.086086273
10.93787384 55.08150101 6.487113953
8.981018066 56.13357544 5.184001923
-3.52495575 55.94728851 3.603313446
-3.355140686 49.85971069 3.989952087
-16.02577972 54.22940063 3.934700012
-2.247673035 54.78672028 3.510726929
-1.690071106 51.86682129 3.816467285
28.14185333 49.22903061 17.08069801
33.27320099 54.71605682 8.20362854
33.90298462 54.99816132 7.77375412
31.2980423 55.67195511 6.149078369
32.89142609 55.85951614 6.910335541
10.95566559 59.71586227 3.979175568
26.13033676 55.94092941 7.618110657
10.44584656 58.10687637 4.330085754
9.428634644 57.87030029 4.527385712
26.40651703 56.5663681 6.086883545
28.31434631 55.671875 8.043813705
24.89715958 54.97335815 8.961265564
8.116729736 57.71353149 4.417377472
6.887252808 57.84836197 4.186695099
32.33799362 54.08953094 13.50681877
32.76028442 52.09295273 14.38649368
22.59796906 54.04156876 9.577356339
25.23800278 52.39198303 12.03570175
20.37479401 54.71593094 8.474925995
21.80065918 55.98768997 7.043708801
19.64947128 59.58167267 4.106731415
12.28199387 56.65800858 5.299873352
13.83802032 54.8975029 6.922805786
13.54626083 58.78549194 4.158615112
11.45087051 57.83137512 4.347938538
12.68079376 58.07196426 4.258602142
30.46233368 54.58575439 11.03581238
32.89846802 54.58371735 11.96101761
35.34680939 54.36819458 13.04383087
30.84569168 58.22335815 4.207515717
4.700233459 23.66231918 6.069446564
4.647094727 23.53468704 7.451381683
-4.538253784 23.29765129 6.320102692
-8.242050171 22.16595078 5.540843964
-8.864028931 20.87869453 5.90852356
-7.480804443 20.97958374 5.765087128
-14.84493256 17.18801689 5.900753021
-18.85011292 19.83047104 4.783641815
-15.84857941 15.58028603 5.860385895
-17.55738068 14.80221939 5.856357574
-18.15689087 16.44800758 5.780139923
-19.11109161 15.58582115 5.943214417
-19.22990417 11.14528656 5.887020111
-17.18617249 16.81810379 5.671890259
-18.48072052 18.75297546 5.719562531
-15.11270142 18.63685989 5.422908783
-21.72238159 19.04535294 5.30298233
-21.71292114 17.43011093 5.763431549
-16.09873962 17.83437347 5.609745026
-20.13941956 17.2137413 6.01581955
-20.73960876 18.7244873 5.324729919
-18.90172577 17.43138885 6.124019623
-14.86789703 19.86403847 4.817619324
-13.75347137 19.98786163 4.743900299
-14.11628723 18.84225273 5.306743622
-6.502372742 20.67148209 5.754894257
-5.553253174 18.5345726 5.462272644
-12.70400238 18.83052063 5.044513702
-10.99047089 18.56355286 5.550895691
-9.623268127 16.96141243 6.020519257
-9.495300293 18.60138321 5.528835297
-9.399299622 20.04155922 4.940784454
13.68864822 22.0101738 19.21260071
13.74383545 20.46412468 20.42813301
-7.505401611 23.5118103 6.185440063
7.807533264 23.97987556 7.608680725
7.136146545 23.79737282 7.101680756
8.1068573 24.03241348 6.409137726
-20.43092346 25.62257385 5.5533638
-18.6435318 26.70101738 6.039981842
-19.52120209 28.22990417 5.722564697
-9.656761169 24.32735825 6.95066452
-6.162719727 23.69623566 10.01340485
-8.179481506 24.34999084 11.72035027
-20.13048553 26.88592911 5.725002289
-19.09806824 23.14091492 5.557495117
-11.81674957 24.80631447 7.302158356
-12.59469604 26.31528854 8.189910889
-16.89244843 27.07981873 6.465869904
-6.746276855 23.23310661 7.294563293
-4.362510681 23.20482635 8.991418839
-8.776512146 23.49161148 5.884899139
6.347434998 23.90677261 17.64663696
-0.4701309204 23.3975029 7.301830292
0.3736190796 23.21106148 8.827514648
-6.036361694 23.26685333 8.477668762
13.49183273 25.44669342 13.83346176
13.4712677 24.84523201 15.01312828
11.98717117 24.78186989 13.74216843
14.52415085 26.04276276 13.3652401
14.5959816 25.43345451 14.62727737
11.16052246 24.99578476 7.424640656
12.14745331 25.0989399 9.174804688
10.54923248 24.4547863 11.50552368
9.161468506 23.5660038 16.51334763
9.625854492 24.3210907 14.20597076
-18.33975983 25.40971756 5.844020844
-16.52340698 25.95066452 6.4077034
-14.95074463 26.89579773 7.054050446
-14.05582428 25.25388527 7.084453583
-13.76514435 24.15523148 6.091468811
-15.18441772 24.34050179 6.301738739
-17.44022369 25.08619118 5.927570343
-16.39909363 24.67324638 6.21150589
-16.07539368 23.40505219 5.791439056
-16.83818817 22.67301559 5.596321106
-18.29216766 24.17833328 5.56609726
-18.01812744 22.58958054 5.496112823
-21.55311584 20.81939316 5.647922516
-11.37086487 21.95377541 5.331195831
-20.26845551 22.51122856 5.462223053
-19.25765228 21.87443924 5.176986694
-17.12568665 21.78069496 5.213184357
-18.31731415 21.22395325 5.607585907
-15.81124878 21.92252731 5.211997986
-14.48353577 20.84988022 5.818134308
-12.70217133 23.7597847 5.828025818
-11.41546631 23.62774086 5.864871979
-12.265625 20.76768684 5.973880768
-11.7047348 19.96596336 4.837169647
-12.84471893 20.12430573 4.846157074
2.086891174 23.39140511 8.068822861
5.257720947 23.5422802 10.63508415
5.118988037 23.87838745 12.70386505
2.251991272 23.17587852 11.22215462
5.580780029 23.67447853 8.727497101
54.01988983 26.26982117 6.211215973
52.23454285 29.06427765 6.179092407
19.22861099 27.85294724 9.785011292
18.33435059 28.83469391 11.33756256
17.89893723 27.4221611 9.630214691
16.65445709 26.71624374 8.75674057
19.22884369 18.42950058 10.6334877
18.29846573 18.48619843 11.93962479
18.02887726 26.53168106 7.887294769
20.38419342 27.83204269 9.741481781
19.70343018 28.75862122 10.74895477
49.29664993 33.560009 7.887742996
50.43090057 33.08436203 9.276220322
50.06997299 32.25637817 7.710681915
20.63000107 21.51178551 11.43327332
21.01347351 21.03609848 10.53763199
15.6040802 26.08556366 7.565769196
15.21187592 26.4726963 9.440168381
14.69387054 26.47422409 11.44661331
15.71356964 26.9202404 13.21352196
16.77219009 27.87223434 13.3310833
16.42221451 27.13446617 14.37308884
13.77858353 25.88285828 9.595554352
22.0130806 24.88643456 9.082530975
22.26072693 26.08564186 9.253036499
20.21231842 26.68295288 7.568004608
21.18728638 26.25001717 7.236438751
21.21163177 27.00199127 7.919776917
54.26733398 29.03508759 10.71259689
52.37137985 30.24282455 9.063323975
53.23886108 30.93391418 11.97582245
51.61248779 29.88716507 7.058589935
50.88981628 31.04194641 7.499206543
51.74554825 32.80154037 11.22227669
49.84568024 31.57171249 6.070159912
62.28099823 31.61735535 4.369842529
63.88135147 16.06194687 9.213695526
53.29138184 27.82600021 6.509853363
52.93377686 28.63587952 5.293418884
54.57663727 26.80822754 8.240789413
60.23165131 22.97406578 5.26908493
61.1504631 21.60037613 6.117019653
61.31616974 22.54257965 4.616897583
57.60615158 22.93904495 8.383411407
58.28302765 22.6424675 10.44473267
59.13188553 21.67714691 10.11672592
59.2249794 23.28688622 5.37726593
58.52523041 23.13786125 6.126602173
59.99073029 22.11896133 6.80373764
57.53287888 23.88665771 5.474025726
57.49593353 23.28339005 6.653751373
56.52766037 24.22890854 5.588909149
56.50595093 23.9826622 6.919219971
59.51353836 4.852746487 7.421173096
60.19078827 4.240296841 7.296977997
60.25109482 5.052906513 8.034975052
55.12721252 4.792993069 6.487663269
54.26590729 5.020577908 7.115421295
53.30732346 5.186404705 8.104635239
56.41680908 6.355200291 10.666502
56.00047684 5.243463993 7.042881012
55.56508255 5.62602663 8.083993912
57.27561188 4.954432011 6.850914001
54.51898956 5.453101635 8.159646988
59.24064255 6.201127529 8.908992767
56.12049103 4.407259464 6.145755768
56.89813614 6.045964718 8.872051239
55.55030823 6.146892071 10.2444191
57.51080322 6.007648945 8.484462738
57.96457672 5.654010296 7.783283234
57.5381546 6.247797489 9.314052582
58.58444214 4.974160671 7.1679039
58.1911087 4.129708767 6.583835602
54.35884857 5.881798267 10.28445435
54.98548889 5.79920435 9.154966354
53.35823059 5.665230274 10.25047302
53.05601501 5.410037518 9.351009369
56.66417313 10.48921967 20.97871399
18.712883 17.53343964 9.231853485
19.24290466 18.54723549 8.462535858
18.13985443 18.1625576 8.312772751
58.69329834 9.466627121 16.87226677
58.27316666 9.227443695 16.10785675
59.04686737 9.159490585 16.01054573
59.56295776 9.424362183 16.6775856
57.2667923 10.1750145 17.8300209
57.24308395 10.45212173 19.56048584
54.78289032 27.50569725 9.909751892
60.04802322 9.357183456 15.7854557
54.02150345 6.254879475 12.59722328
19.71138 19.57464027 7.787914276
19.90613937 19.28020859 8.778469086
11.10320282 19.75499344 6.734191895
10.70584106 18.73838425 7.075489044
20.36785507 20.21053886 9.143026352
19.83180237 19.25199699 9.881950378
8.445541382 15.8786602 8.255052567
9.493904114 9.185575485 8.62405014
7.820449829 10.31546211 7.99395752
8.814170837 10.0535183 8.990301132
9.415992737 19.09375 6.608257294
8.731025696 18.3917942 6.84368515
9.879264832 17.82591629 7.486713409
7.410385132 15.64259529 7.637424469
6.036682129 15.01516724 6.772357941
16.78032684 18.19884109 8.238676071
15.64100647 17.126297 9.325569153
15.35025406 18.81686401 7.71680069
17.52505112 19.39412308 7.34595108
17.06746674 20.3523941 6.594802856
15.34709549 20.46750641 6.492549896
13.64990616 18.16705322 8.303409576
12.88054276 19.84226227 7.001392365
12.0050354 18.89473343 7.262828827
11.64497375 17.1002388 8.443229675
9.984649658 16.16877365 8.305459976
9.556884766 14.53032112 8.679111481
11.30878067 14.33291245 9.509593964
9.020301819 13.39110184 8.864370346
8.110557556 12.77265739 8.595802307
9.269920349 12.18092537 9.283697128
13.88651657 19.16461182 21.45888901
52.24601746 6.118801594 13.97827148
15.76236343 16.86218262 16.05790901
14.98595428 17.20870018 19.19573975
18.92015076 4.583563328 11.98176384
50.73515701 5.387285709 12.58313179
51.57352448 5.772332668 13.23694611
10.48357391 6.715775013 8.821796417
16.52666473 16.83651733 12.10848236
15.23286057 15.00276947 14.55253601
10.37018585 8.360347748 10.35700989
10.31822968 8.657461166 9.201831818
9.958190918 9.440895081 9.847496033
12.53689575 12.27641296 11.30281258
10.64749908 12.00704384 10.19512939
9.537918091 10.72111511 9.926925659
0.1605453491 18.86545372 6.233943939
-0.7455749512 19.79994774 5.849079132
1.498832703 18.09692001 6.698410034
0.9240646362 19.2759819 6.156105042
-0.08990478516 20.15721893 5.818553925
-21.90290833 9.059343338 5.867446899
6.244544983 13.80759239 7.085067749
-0.896232605 18.72370529 5.801242828
0.5956192017 17.55147552 6.377529144
-2.479064941 19.97781944 4.886463165
2.226249695 16.28953171 7.04328537
1.659713745 16.97180748 6.753921509
-1.994186401 17.79713821 5.883010864
-3.459091187 19.42092705 5.142223358
7.15687561 13.3666153 7.853340149
1.457672119 16.1172924 6.548137665
1.450393677 13.0547142 6.596984863
0.7914352417 15.28674698 6.338115692
-0.7032241821 16.01164436 6.277667999
-3.753105164 17.89756012 5.973827362
2.279273987 14.74369049 6.80437851
0.002502441406 14.35255051 6.506195068
7.279289246 12.23291206 8.109930038
6.429145813 6.165438175 5.782711029
2.697631836 11.02938271 6.885009766
1.267829895 11.27156067 6.734523773
2.046409607 11.99695969 6.844806671
0.3915481567 12.6884594 6.626354218
-6.27620697 15.56537437 5.912757874
-7.081581116 13.71871185 6.121868134
-1.744918823 13.96952438 6.26051712
-4.249252319 16.06063271 5.881984711
-9.114402771 12.38751984 5.95898819
-2.05002594 10.33847618 6.238483429
-11.07067108 6.404985905 5.934192657
4.448806763 9.450740814 6.892986298
1.810150146 9.072238922 6.281780243
2.817962646 7.805490971 6.22901535
2.629890442 9.994960785 6.839443207
4.937477112 3.081335545 6.5509758
3.585151672 2.465271473 6.467514038
-0.9677886963 8.711727142 6.014865875
0.5103988647 10.3193512 6.371921539
3.608856201 8.663537979 6.655662537
5.818496704 4.010932446 5.657516479
4.827110291 4.2295928 5.897281647
1.516281128 4.22746706 6.412384033
44.7348175 3.393881321 9.713098526
45.11555862 4.660501003 12.51997948
48.8162384 4.537861347 12.73331833
47.46427155 3.01409483 9.782749176
47.0586853 3.64664793 10.81711006
45.98680115 1.909400463 7.637424469
18.91109467 5.691219807 5.80298996
17.70986938 5.872252941 6.009292603
17.83252716 2.85421896 5.256950378
17.05020905 2.740084171 4.002620697
19.28731537 3.298108578 5.808425903
18.54000854 3.585856915 5.311893463
18.37503815 5.331600666 6.647251129
20.63690567 4.497427464 8.230010986
21.28534698 3.958795071 7.410404205
21.70952988 3.805215359 8.467918396
51.06122208 4.84076643 9.77381897
52.02295685 4.706145763 7.371257782
52.1360321 5.108339787 9.093593597
51.80770493 5.327609539 10.54753113
0.3978881836 5.802673817 6.193569183
2.395492554 5.655846119 6.26858139
3.760719299 4.93986845 5.992321014
-0.5167160034 7.33980608 6.075298309
-2.052070618 6.122088909 5.941490173
0.8931808472 8.229492188 5.997570038
3.859451294 6.443672657 6.083557129
41.80575562 2.673119068 8.275138855
43.36669159 3.166066647 9.273832321
42.29729462 3.390182018 10.44607162
44.31349564 2.824662685 8.42313385
42.23770523 2.175345898 6.908546448
44.12628937 2.195689678 7.235546112
37.68330765 2.023113728 6.733715057
43.09241867 1.852037907 6.560390472
43.98314667 1.416820049 6.34495163
42.06277084 1.485438824 5.963535309
43.83069611 0.6550173759 5.871608734
43.01685333 1.013128757 5.788085938
40.19190598 2.227077007 7.420284271
45.90261841 5.097034931 13.13899231
21.21207809 2.782412052 6.642337799
32.20446777 50.30574417 15.85610008
44.95543671 38.4132576 9.175727844
18.78273773 16.39744186 31.50296211
19.00712585 15.70821571 32.21049881
18.24596024 10.92888641 30.70620537
16.19547272 12.70916176 18.98769379
14.43941116 12.53025818 20.95931244
13.86740494 17.77487946 21.63433456
12.43886185 18.60259438 23.26224327
16.87520599 16.24556732 30.40105438
17.47557068 17.0056057 30.24525261
16.39715195 9.215061188 26.547369
15.46263885 10.12698174 26.24164009
22.59587097 8.413415909 18.78450775
22.94394302 7.809937954 17.65289307
23.0952301 8.078884125 20.26148224
23.78468704 7.825583935 19.32784653
35.68000793 0.8641972542 7.764591217
35.55142975 1.802344799 8.855119705
34.8228035 0.9480566978 8.903026581
36.18428802 0.8483271599 6.775215149
35.9050293 -0.0002293586731 7.03496933
23.60342789 7.25774622 22.50338364
23.6042366 7.485732555 21.20050049
22.53895187 7.929089069 21.57083893
28.54634476 2.204545498 10.91930008
28.45711136 0.9460129738 9.27507782
29.61167908 1.200843334 9.978673935
27.39553833 0.5649523735 8.305517197
15.47202301 9.374498367 18.2238121
15.61574554 10.64868164 17.02503204
15.70470428 8.955587387 15.41223717
13.916996 8.55402565 14.27315903
16.61600113 12.77372551 16.38671494
14.32149887 12.69906616 13.58126068
11.94638062 8.497112274 14.00124359
26.83125687 19.27576637 31.0228157
26.97080612 20.67216873 30.82901001
26.10424805 20.20365715 30.46841812
15.67469025 16.97154999 29.42253304
15.74856949 16.02092171 29.82670975
16.49023819 15.37649727 30.47281647
17.33610916 14.83518219 30.82973289
14.75629044 16.71152115 29.30322647
15.03878403 17.54034424 29.29018402
12.55794525 16.0716362 28.31713867
18.49959946 17.05237007 30.70582962
19.54766464 16.99559402 31.19818878
13.45672607 10.24721336 12.88323593
41.19470215 15.00359344 28.75605583
41.09609222 15.891716 28.6929512
12.64125443 15.04973984 24.83078003
11.67838669 18.17196846 24.67248535
11.43519592 19.17857361 24.7596817
14.87415695 19.38124466 28.3878746
16.28394699 18.76823235 28.45738602
12.06303406 6.823979855 14.13877487
11.5005455 7.523467541 12.88263321
16.11354065 8.176000595 17.41033173
26.91938782 3.944398403 16.32440948
17.82679367 7.791662693 19.83145523
17.41115189 7.861431599 18.86066437
18.60720062 8.039838791 18.82049942
16.28206253 9.397485733 16.65720749
15.23767853 9.338266373 19.51312447
14.00675964 12.80489731 24.27152443
13.86253738 11.96404076 25.02301216
14.99583054 9.748289108 23.2154026
15.22690582 8.160778046 23.11243057
14.78640747 9.788169861 22.12591934
15.42884064 9.000747681 22.18000031
14.67914581 9.534349442 20.67644119
15.0041008 11.108675 21.61126709
13.98768616 14.1335125 23.90132141
15.010952 12.82338524 22.90264893
11.01413727 7.363055706 11.34585953
10.49002075 7.175137043 10.07717896
21.02139282 20.74448395 9.603397369
21.22060394 21.08109665 8.502731323
21.73724747 4.226759434 12.17992783
31.14913559 2.513141155 11.54892921
30.52929306 3.236272335 12.74782372
26.77043152 3.878675461 14.91205978
31.78970337 3.474243164 16.68764687
31.86797333 3.405360699 13.743927
32.02370834 2.829924107 12.09310913
18.51404953 5.010044575 7.687877655
19.47235107 5.338284016 6.769908905
19.61276627 4.790256023 7.938764572
21.15691757 4.36676836 10.50667572
22.08350372 3.922607899 9.828859329
23.28731918 3.325127125 8.714366913
19.73459244 4.534296513 9.215799332
19.98598099 4.697863102 10.56941795
11.03114319 6.318650723 10.23166656
12.03147507 6.08468008 12.44166183
21.65678024 4.430418491 13.49830055
21.60823822 4.420356274 13.02820587
37.46434402 2.401945591 8.302957535
36.42198944 2.291516781 8.785757065
18.53011703 2.733683109 6.143314362
18.62788773 1.683331013 6.99313736
15.11927414 4.857878208 7.699569702
15.51203537 4.534725666 8.685523987
16.41368103 0.9641404152 5.533325195
17.82935715 1.943510532 6.109077454
19.54353714 2.487476826 6.484809875
21.45612717 1.616138935 6.876598358
20.56830597 2.160646915 6.687862396
17.5745697 0.05137586594 5.689468384
4.551849365 -1.371288776 5.486930847
5.17388916 -0.002711772919 6.065078735
3.575897217 -0.7181143761 6.136680603
12.90931702 1.529083729 4.36158371
12.17662048 1.460934162 3.918064117
12.21961212 0.4897313118 4.374382019
13.49747849 0.7161726952 5.009246826
13.62059402 2.117416859 4.078598022
5.560577393 2.120671749 6.47146225
6.049835205 1.271169186 5.947116852
2.726524353 1.522492886 6.473491669
1.900878906 2.46607542 6.370384216
-1.086242676 2.701659679 6.697849274
-6.451828003 4.189971447 6.423622131
-7.200408936 1.132345676 6.56703949
8.386291504 -3.135882854 4.482730865
9.2576828 -1.169735432 4.087768555
7.557403564 -1.56998682 4.308708191
1.227981567 -1.209626675 6.336303711
2.941650391 0.4319386482 6.457748413
13.40116882 -0.5969290733 4.054443359
15.57725143 -0.983736515 5.841266632
16.52614212 -0.5259709358 5.622440338
11.56906128 -5.324408054 6.058170319
10.12445831 -2.333988667 4.548778534
7.53061676 -5.54840517 4.994564056
9.483093262 -4.183797359 5.034786224
13.8454895 -6.177679539 6.407592773
13.36624908 -5.044671535 6.137981415
18.38249969 -6.315975666 7.3530159
30.17629623 -1.002636433 7.949068069
31.42288589 -0.6749987602 8.139369965
30.46751022 0.1713986397 9.031820297
3.888526917 -3.421322346 5.230861664
5.957702637 -1.646529675 4.873508453
6.171379089 0.07909917831 5.363422394
30.6975708 1.382432461 10.2969017
31.68722916 1.333702564 10.16521454
32.66327667 1.156198978 9.923818588
32.20075226 0.2582230568 8.990222931
33.30423355 0.1518540382 8.770938873
33.0592804 3.383845806 13.93431854
33.23326874 3.551268101 15.09827042
32.28607941 3.513136864 15.21330643
35.7816658 2.535934925 10.10349083
32.96329498 2.088174343 10.95667839
33.02328491 2.898250103 12.37422562
33.76806259 0.9892420769 9.749919891
26.23466492 3.535233021 13.25811005
25.29139328 4.017054081 14.38934135
22.90602875 3.92935133 12.08922195
23.62932968 3.523052692 10.71430588
25.09238815 2.804805279 9.226524353
25.63756561 3.108697414 11.31451607
26.03256989 1.431517124 8.06669426
24.47858429 2.114131451 7.265480042
26.55220032 0.02769517899 7.281017303
32.74913025 -0.794110775 7.900760651
23.22699356 3.964515686 13.00098801
34.26708984 0.1885991096 8.590717316
34.0855484 3.133525372 12.72029114
35.21180344 2.93832159 11.74526024
36.3548317 2.991592884 11.30983353
36.41646957 3.526425362 15.09955597
35.15956116 3.721065521 15.06493568
35.02962875 3.379805088 13.35476685
36.03570938 3.414415836 13.80597305
25.73465729 -0.7171559334 6.595050812
24.47874069 0.8265709877 6.215023041
24.79695892 -0.1810278893 6.019515991
33.94145203 3.655498981 15.77353287
23.4369545 0.8648591042 6.292984009
24.10360336 0.1793723106 5.640449524
23.14966202 -0.2131810188 6.117042542
22.36090851 0.7208380699 6.620174408
21.37471008 0.1013712883 6.789268494
22.37813187 3.685191154 13.63768387
23.80039978 3.913140774 13.87887573
22.94691467 3.493400574 14.70478439
25.03356552 4.103274822 15.64610672
28.12265396 3.653848171 15.78584671
27.80270386 3.675252438 17.26893806
26.77864838 -1.245398045 6.972957611
26.02111816 -2.151451588 6.773281097
26.91351318 -2.943147182 7.115310669
27.01636505 -2.154536724 7.014835358
27.53807068 -1.691315174 7.217739105
23.56972122 -1.072944164 6.353458405
23.80668259 -0.7311816216 5.756752014
37.59653473 3.083079815 11.35946846
36.80423737 3.282864094 12.66129303
38.3986702 2.759434223 9.817861557
37.10725021 3.370211124 14.08175659
37.78586197 3.50047493 15.70207596
37.29974747 3.441494942 15.13778305
38.18423462 3.517060757 14.64784622
27.53042603 3.653124332 25.84018326
48.33281708 2.983828068 9.408712387
46.96921539 2.75291872 9.208190918
46.7137146 2.319587231 8.401838303
42.8033638 4.936337948 19.56708527
57.82268524 -3.193012714 5.140911102
51.70934677 5.580000401 11.90808105
38.85017776 2.454391956 7.977550507
41.19942093 1.923212528 6.533493042
38.9168663 1.855917454 6.334503174
41.49900055 -0.6103224754 5.80034256
48.66529083 2.566264629 8.517066956
45.36761093 5.175180912 13.58266068
51.38034058 5.849956036 14.37207794
42.82049561 3.851689816 12.20586967
41.60592651 3.524117947 11.94967651
44.66757202 4.775609493 13.84598541
46.57367706 4.462291241 12.21492386
43.87895966 4.287687778 12.95938873
40.48883438 3.371716976 12.50229836
39.74035263 3.439405918 13.44197655
43.0430336 4.029706478 13.61558342
43.17669296 4.018744469 14.66464996
42.42227554 3.839397907 14.27185059
41.52177811 3.661533833 13.53516769
41.76293564 3.713073254 15.04998398
55.67485809 10.72885132 22.82796478
54.66075897 10.69793701 22.86654472
56.75667572 10.758564 23.02576447
55.86224365 11.0754776 23.80055237
55.01209641 10.89480782 23.57793808
57.2636528 11.28837967 25.35738754
57.78944016 10.69670486 24.64618301
58.63742447 10.36431885 24.48611069
57.81774902 10.50323868 23.59670639
59.67527008 9.855766296 24.39443207
52.48715973 14.59601593 29.25439072
52.0135498 15.5493412 29.50057602
50.97642517 15.71930313 28.83951378
51.61792755 14.96174431 28.64408875
54.38753891 16.71333122 30.84134483
42.053936 17.53579712 29.328228
51.52426147 16.55073166 29.98925591
50.67764282 17.00809479 30.56076813
51.57261276 17.32163048 31.05979919
45.21915436 18.88686752 31.39910507
44.87693787 19.33193588 30.51797295
44.43144226 18.37500572 30.55184174
46.126297 19.25391388 31.89056396
47.19559097 19.53103447 31.97304535
45.43756866 19.9051342 31.36309433
45.94358063 18.40379524 31.790905
55.07038116 16.919487 31.38878632
46.289711 17.42947578 32.02679443
47.31092453 16.81729698 31.41428566
46.88674164 18.50258636 31.77907181
46.35521698 15.04064751 31.29263115
46.22023773 16.11673927 31.77941132
54.3896637 14.08542633 31.31889915
53.08872986 13.40270805 29.20615005
54.28839874 13.74762154 30.29154587
56.36891174 16.52536964 32.88850403
55.7701416 16.42363167 31.98722649
55.79138947 15.44725227 32.65114975
53.96404648 13.35862541 29.56787109
54.80528259 12.96210098 29.75759888
53.04888153 12.3931675 28.58448029
54.0526123 12.62802505 29.15604019
48.18149567 14.90129089 31.86046219
48.02708054 14.33380699 32.56803131
47.30241394 14.71515274 31.855896
47.45437622 15.61476517 31.34575653
46.72046661 14.04843712 32.66769791
45.59080505 13.68220901 31.35074615
46.56550598 12.72783279 32.24564362
45.68330383 12.20313644 31.07183456
54.94833755 14.25860596 32.52146912
56.34162903 14.19064713 33.04013443
48.85773468 14.48027229 33.34579468
48.76812744 14.5928421 32.51623917
57.82025909 14.38887215 33.53928375
58.17951965 15.56079102 34.36769867
42.82933044 9.192800522 28.73300743
42.12479782 9.1086483 27.64337158
43.57574463 9.760419846 29.58917618
42.49186325 9.890954971 29.92102432
41.88035583 9.903654099 29.71171951
43.2249527 10.96375084 29.6621151
44.44514084 10.67069626 30.10135269
47.10053253 12.82295609 33.6420517
33.2772789 11.41947556 28.83786011
32.15143204 12.03957748 29.22786903
31.11039734 12.08927345 28.29730034
30.88571167 10.82007408 28.55465508
14.87234879 11.38806534 27.18554306
19.90942001 15.47101784 32.88880539
21.7050209 10.88414001 28.81193161
19.0524292 14.9622879 32.78666687
27.21307373 16.14762878 35.10988617
26.28806686 15.29456329 34.92136002
24.52912903 15.24799538 33.64561462
24.68837738 15.42490196 32.74151993
25.46020889 15.95720482 32.29947281
27.80609512 15.68771172 35.7542572
27.00465393 15.32405472 35.53000259
26.54921341 14.53717422 35.56994629
25.47812653 15.11618614 34.19921875
18.57231903 14.52872467 32.43262863
18.15826416 14.26923752 31.50463104
15.54089355 12.97761536 29.54453659
16.01441956 13.65107727 30.20837021
24.40420914 12.41719246 29.77014732
17.08367538 12.85984039 29.9715023
17.59336853 11.54006195 29.83089638
23.82609177 11.22581863 28.46776581
22.28580475 12.2624054 27.99065399
32.38243866 12.98500061 29.82661247
32.95606995 11.6900444 30.63420868
25.67722321 14.4412117 34.95402527
25.65838623 13.29722977 34.4319191
26.15459824 13.69838142 35.51387024
23.98884201 6.552584171 26.95339775
24.08275223 12.42902756 31.90488434
24.83540726 11.79358292 30.75518417
23.40921783 13.17051697 30.83619308
25.18838882 12.19407845 32.59176254
25.47624588 10.84882164 32.82568741
25.18106461 11.18735123 31.61679077
16.00951385 10.81568146 28.10930634
15.85110092 10.21317863 27.091465
17.11375046 9.811870575 28.41583443
16.74977875 9.620540619 27.51407623
17.11973953 13.79076385 30.58242035
18.68935394 12.64488983 32.9199295
16.84039307 10.88569641 28.78970718
18.96883011 11.24113083 32.24801254
18.32751846 11.51555824 31.30441093
19.09988022 12.23127365 31.73513031
18.56207657 12.9869976 31.95336342
18.04935455 13.52580261 31.49914169
21.26766205 9.478309631 30.56210518
17.43932724 10.95796013 29.21207428
17.37603378 9.99861908 29.12303543
20.79508209 9.783502579 31.13903427
22.5510788 8.51897049 28.49166489
23.30249405 9.175970078 28.09828568
22.59376526 9.350114822 28.37686539
21.90245819 7.544678211 28.25576401
24.67158508 7.795735836 28.86670876
24.23891068 8.949949265 28.46833038
20.65950394 8.953531265 31.14224243
29.25442505 6.268002033 31.49309349
29.20137405 5.46160841 30.58577728
28.89672852 6.765645504 30.51764679
21.54714584 9.278623581 29.81597519
21.82257462 9.82002449 29.22854233
21.49203491 10.20235634 29.85953903
21.40415573 11.13739586 29.83252525
21.79120255 8.659656525 29.09690666
29.20163345 8.507986069 31.45580864
48.75455475 12.28559494 36.0223999
49.56804276 13.45510292 36.3205452
48.09841537 12.53909302 34.59976959
47.17324448 11.27507401 34.07707596
49.86253357 13.31852722 34.77897263
46.81617737 10.74796486 34.96060562
45.23632813 10.45883942 33.11911774
45.87467957 10.25566483 34.43078613
46.21463013 2.967245102 21.4432869
44.52627563 3.570984364 20.51956177
44.55190277 3.088643074 18.56764412
43.98005295 3.443454266 17.76545715
44.79484558 3.188487053 17.49019241
55.6626358 -16.14687729 5.912708282
45.46904755 3.287008286 22.26025772
30.50956345 2.853360653 25.53697395
30.17613602 3.091123104 24.20767212
30.75031281 2.574785709 26.56506729
29.67008591 2.457332134 26.45547485
26.34529877 5.609834194 28.47695351
27.36884308 4.906536579 28.75879478
25.98232651 4.697241306 27.16117096
25.49474716 8.718317032 28.73998642
25.75245285 5.49620676 27.7316761
20.78687668 7.20774889 27.71866226
21.52394104 6.835385799 27.15883827
21.14614868 6.655554295 26.26265717
22.15724564 6.816618443 26.22211456
20.19661331 6.700251102 26.80870438
19.40143204 -7.250574589 7.090221405
30.69796753 3.611541271 13.90912628
29.79889297 3.357937336 13.50019836
18.09781647 7.520520687 20.89894867
14.64178085 11.13759041 25.80552673
21.06744766 7.681390285 22.04770279
22.34819412 7.595695019 22.89982224
20.16752625 7.006759167 23.26857376
19.58516693 7.226953983 22.02041626
19.97644043 7.814404964 20.79092407
18.97930908 7.548671246 21.16854095
20.74760056 6.896016598 24.44861221
19.40334702 6.319639683 24.4843483
21.66917801 7.249006748 24.44991875
21.44189072 6.956738949 25.33412552
26.5895462 4.010945797 26.48832703
18.90483475 6.481771946 23.02202606
26.03803253 5.016656399 26.05211449
32.6530838 3.514698029 17.20108604
32.03763199 3.546100616 17.65460205
44.74408722 3.999257565 21.5458107
44.02091599 4.224813938 20.95824623
29.78240585 3.432510853 19.58489227
29.35638428 3.61229229 20.61588097
22.561409 7.165804386 24.94483185
18.43054962 7.03615427 21.92383385
14.87047958 10.66584015 24.51006889
16.09939957 9.053329468 25.52101135
10.50164795 -7.054764271 5.855155945
12.43716812 -5.535704136 5.983940125
26.054245 -3.366905689 7.137554169
14.55685043 -4.668998241 6.667007446
13.7605629 -3.64937067 6.281684875
13.98570251 -9.776226044 6.596107483
15.22786331 -8.365089417 6.688602448
14.07302475 -7.73466444 6.587188721
16.65471649 -8.542219162 6.910877228
16.22204208 -6.72801733 6.857803345
15.84589767 -5.045296192 6.920097351
16.59786987 7.091686726 22.58350563
15.67037201 7.290534496 23.53549767
33.55652618 3.703654289 17.10069656
28.72804642 2.976053715 12.86289597
27.30897903 2.812978268 12.09653091
28.99707031 3.485160828 14.55202866
30.92942047 3.620483875 15.39797592
28.98907089 3.559828758 17.13724518
29.56832886 3.629956722 15.87030602
43.3723526 4.461976528 20.37635803
43.55641556 4.924174786 21.06344223
45.0171051 3.784642696 16.2507782
45.95922852 3.052202702 17.26535797
46.89515686 3.019147396 20.48204041
46.05256653 3.268462181 20.21254349
47.0640831 2.783140182 21.62894058
47.74326324 2.948412418 20.91742134
44.17115784 4.978806019 21.66448593
31.11597061 -12.47770691 6.174945831
29.78111267 -10.76587486 6.54152298
29.7973175 -11.96767044 6.352424622
7.094535828 -11.66110992 5.623268127
4.648529053 -10.70641327 5.447616577
5.029190063 -7.347732067 5.176956177
-11.67395782 -4.699944973 6.398921967
-17.70056152 -7.841799259 6.809593201
9.061981201 -9.304189682 5.563896179
11.00016022 -9.661865234 6.068943024
7.365364075 -14.9497776 5.912128448
16.15024185 -16.56899452 6.709346771
13.51312637 -12.36862564 6.48506546
-21.18771362 -8.370895386 6.670993805
36.45611954 -6.411077023 4.890548706
35.96138 -5.180491924 4.61838913
44.48145294 -16.00110054 6.054115295
43.68872833 -16.90504646 5.947338104
39.21375656 -19.58544922 5.969631195
38.35795212 -19.79921913 6.110816956
28.71343994 -14.23638344 6.182243347
29.78639221 -15.63278198 6.078643799
38.93639374 -20.49210739 6.02853775
40.93935776 -17.33504105 5.878879547
40.08306885 -19.41427422 5.984107971
39.45038605 -18.63910866 6.014202118
28.30780411 -17.24360275 6.19536972
28.46220398 -18.71019363 6.090305328
32.62363815 -15.61819649 6.072933197
31.17832947 -15.58146477 6.106716156
33.23722839 -16.84430695 6.048259735
31.90108871 -14.09065819 6.15877533
37.46730423 -13.24565506 5.453063965
36.14283371 -12.89386177 5.661312103
36.64729691 -14.23162842 5.463977814
38.5640564 -13.60180855 5.3397789
38.41732788 -12.41242027 5.507640839
39.59412766 -13.70443344 5.420917511
40.65513611 -13.51495934 5.552268982
38.82333374 -14.83782005 5.508975983
39.66857147 -15.54857826 5.652130127
40.0821228 -14.57840347 5.583827972
37.35763931 -15.50203896 5.528957367
35.87423325 -15.21858025 5.466636658
27.49948883 -12.98740959 6.313034058
29.20713043 -18.10292625 6.142009735
28.5151329 -15.78019333 6.065319061
30.19432831 -18.14198303 6.179229736
34.74839783 -15.06552315 5.683460236
33.90155792 -15.78607559 5.750076294
27.3264389 -15.88989258 6.236412048
25.22810364 -12.89221573 5.711589813
35.36575699 -7.593409061 5.196460724
35.17617416 -6.181346416 4.984027863
38.6815567 -7.493350506 5.107551575
38.97787476 -6.151088238 5.017799377
37.80115128 -6.412372112 4.961654663
34.94325256 -5.225883007 4.563301086
30.80374908 -5.260374546 6.647853851
31.04727554 -5.908650875 6.378932953
31.7073822 -5.11910677 5.842350006
33.11910248 -6.426236629 5.301124573
30.2270813 -5.944513798 7.136295319
30.66130829 -6.779761791 6.67276001
34.0949707 -5.776908398 4.994953156
12.56301498 -10.34521294 6.397205353
12.84040451 -6.450272083 6.147937775
13.26397705 -7.349113941 6.401485443
12.41438675 -8.188474655 6.272052765
22.92723465 -17.55812836 6.043773651
23.57551193 -11.18170357 6.068222046
22.68334961 -11.90490723 5.904705048
23.44895172 -12.19818687 5.785469055
22.91347122 -14.86953545 5.809402466
23.9664917 -13.55782318 5.68270874
21.69931793 -16.12966728 6.325954437
22.57645416 -10.56016159 6.229129791
26.65787888 -14.64537239 6.129207611
25.42385483 -16.96173668 6.123416901
25.11039734 -14.75864601 5.805168152
26.20315552 -15.61587715 6.05644989
-1.390060425 -13.19902802 5.611461639
0.3225479126 -7.303940296 5.789222717
33.91820145 -8.562110901 5.666023254
32.72209167 -7.575296879 5.790962219
35.44887543 -9.374629974 5.258441925
35.67740631 -11.24588776 5.508087158
37.08502579 -10.13240814 5.187469482
33.66887665 -14.26082611 5.954135895
34.52206421 -12.60970879 5.758476257
26.46870041 -13.43998337 6.147975922
24.80086517 -11.25381851 6.090805054
27.34063721 -11.38435555 6.418319702
27.23743439 -9.893722534 6.677059174
28.69038391 -12.54834175 6.288536072
30.63342667 -10.13213158 6.487297058
29.46832275 -9.729125977 6.829097748
26.19404602 -11.96681213 6.167251587
-2.351821899 -7.110327244 6.27041626
-3.369750977 -4.414760113 6.448883057
-23.64703369 -6.094024181 6.451610565
22.52560043 -9.263931274 6.848365784
21.66544342 -11.91299629 6.329319
20.33277893 -11.9457798 6.731594086
20.79370117 -14.17580414 6.503070831
32.76127625 -12.53659439 6.011562347
31.7840004 -11.05461311 6.259708405
28.63671875 -10.78339005 6.53408432
22.98104477 -13.07253838 5.811218262
17.53604889 -10.20070267 7.206905365
18.06633759 -8.017726898 7.271751404
16.93962479 -13.08821487 6.822223663
18.87496948 -11.44485474 7.133342743
20.3345108 -9.846403122 7.056777954
31.25779724 -7.768793583 6.309764862
32.04824066 -9.214759827 6.163188934
30.03524399 -7.736466885 7.030021667
30.43004608 -8.848419189 6.742858887
20.46544266 -8.089752197 7.061775208
32.98298645 -5.25443697 5.149814606
40.12918854 -12.6775856 5.432823181
42.87770844 -6.593677998 5.330783844
41.88677597 -7.174920559 5.310012817
40.99227142 -5.343387127 5.1393013
40.91925049 -6.551686764 5.229427338
40.00335312 -5.745025158 5.138366699
40.87413788 -7.925838947 5.120979309
40.29610443 -9.267410278 4.875492096
41.52304459 -9.139736176 5.199436188
40.54351044 -11.59972191 5.344932556
39.44597244 -11.86885452 5.353076935
39.67896652 -8.177099228 5.076828003
38.44738388 -10.9966011 5.440040588
38.7340126 -9.239719391 5.154273987
51.53205872 -10.90809059 5.605792999
50.34553528 -11.79360199 5.685535431
54.69689941 -12.27619743 5.714214325
56.72700882 -3.525174618 5.21024704
58.26676178 -4.031587124 5.164520264
59.223526 -4.266040325 5.143733978
58.17174911 -4.904610157 5.307529449
57.4187851 -4.266355991 5.256477356
57.15837097 -5.24070406 5.364032745
55.74816132 -12.09422112 5.673915863
55.34178925 -13.21238136 5.680973053
57.88389206 -5.820265293 5.330856323
60.44403839 -6.095849514 5.181419373
53.20806122 -22.51487923 6.145145416
54.78525543 -23.20839691 6.13066864
61.36843872 20.68556213 7.718742371
62.46261978 19.50166321 8.195585251
62.24572754 20.3972702 6.7657547
63.43622971 18.02017593 6.962532043
62.22393417 21.27750778 5.476463318
63.26362991 20.16708374 5.773921967
63.1265564 21.11621475 4.979377747
62.10823441 20.66924286 17.43513107
62.21541595 19.85572433 18.31867218
75.79427338 18.35284424 5.018817902
76.37902069 17.77857208 4.945030212
75.79389954 19.28203583 4.908557892
74.51415253 18.6385994 4.928180695
76.91307831 18.6882267 4.998340607
82.7494278 20.3803997 4.601787567
82.94895935 19.20235062 4.58498764
79.53624725 9.90202713 4.859729767
78.93802643 10.48051262 4.813625336
79.91751862 10.6284771 4.813030243
78.82772064 9.513271332 4.885559082
79.40055847 6.408737659 4.980266571
79.04964447 4.849992275 4.862293243
79.99541473 5.595213413 5.079601288
79.94821167 13.48812485 4.793830872
79.39845276 15.28865051 4.906059265
79.70008087 12.44448471 4.683322906
63.24300385 16.98716927 6.911457062
63.3301239 17.41669083 7.763820648
63.17922974 18.24910736 8.30619812
63.2611084 17.72165871 9.484580994
80.41282654 -15.32513618 5.924350739
82.38419342 -12.53051758 5.544483185
73.2574234 -23.77295494 6.093997955
73.94574738 -22.59835434 6.007884979
74.15737152 -21.47129822 5.93006897
80.30728912 -21.84104729 6.165294647
82.23332214 -23.40221024 6.017314911
77.98496246 -25.97830391 5.865375519
66.14685059 -23.40316391 6.303401947
60.29874802 -4.917623997 5.214801788
61.20975494 -5.343932629 5.292842865
59.08930206 -5.733003139 5.164646149
78.91070557 0.8057084084 5.101852417
78.44888306 -0.316467762 5.237255096
79.21291351 3.6001544 4.984272003
62.12714005 8.716403961 14.36923981
61.58639145 8.785930634 13.53513527
62.59632492 8.367393494 13.48171806
62.91374969 17.55726051 11.94185448
62.44204712 18.70998955 10.75284958
64.05699158 19.5737648 22.16405869
63.04331589 19.30270958 22.34070778
60.41603851 17.67605019 17.59143829
61.18767929 17.89969635 16.80817413
62.55648804 19.88914299 19.3368969
61.61050797 18.8736496 18.82551384
62.20339203 19.5676384 21.77278709
61.23376465 18.66000557 22.38869858
61.45737076 18.31148911 21.30520439
61.42411804 18.3585968 23.37392426
60.49208069 18.15690422 23.02037811
59.96871948 18.07269287 20.94659805
60.81914139 18.27309608 19.98563194
60.1882515 17.93797493 18.67637062
60.26781845 20.66697311 11.66010475
63.06813049 20.42690277 20.66288376
63.35707092 20.83621597 19.34311104
64.02655029 21.52530861 19.06961632
63.51473618 21.31317329 18.54927063
62.78652954 18.6391201 9.531784058
63.1469574 17.71253586 10.55941772
63.87524414 18.89335632 22.90218163
62.92370224 18.72583389 23.01959419
63.07064819 21.65270233 17.65135002
62.11136246 22.1330204 16.20465851
65.91335297 21.46813583 20.87189865
65.01605225 21.36576462 20.35974312
65.69057465 22.09905624 20.08551788
67.37456512 22.72235489 20.90884209
67.58444214 22.21541405 21.95637703
66.83475494 21.64684486 21.34609413
67.6678009 21.92188263 22.99028778
65.61090851 19.8955822 22.67267609
64.9199295 20.11104202 22.07550049
65.98822784 20.71168327 21.94739342
64.30059814 20.15794563 21.5470047
60.53907776 8.967298508 20.14309692
63.49261475 9.701118469 21.96087646
63.42868042 9.848775864 20.82394409
62.86099243 10.32006645 24.05106354
64.47756195 10.25507164 21.46561813
65.35834503 10.38570023 19.03856468
61.81017303 11.88861084 27.77330017
62.39902496 11.35501862 26.87131119
61.85848999 12.70935822 28.6453743
58.33833313 9.942567825 17.83220291
57.73197556 10.42275429 22.01333046
57.4511261 10.38193893 20.56181908
58.23431396 10.11574554 19.96529388
59.3115387 9.640909195 20.65054131
60.73296356 9.311433792 16.94079971
61.38519287 9.094047546 15.42781639
59.1705513 9.662052155 19.11124611
61.46187592 18.06237221 26.60669327
61.18454361 17.99338722 25.23517227
62.83468246 18.57837677 26.81487846
61.40878296 20.79866028 29.97847176
61.57519913 22.16252136 29.63009262
62.03450775 21.2730484 29.51945114
62.2985878 22.06304169 28.9609642
64.84880829 33.29131317 22.30010223
65.43309021 32.26080322 21.52063751
64.25948334 32.58006287 21.47639465
60.21317673 34.17386246 22.44417953
58.8495636 34.1679306 22.07784653
59.91657639 34.90850067 23.26062393
63.41686249 49.33042526 3.865184784
61.35414124 49.53128815 3.803245544
62.55411911 48.08888245 3.812011719
64.55703735 49.35480499 3.762508392
62.24891663 49.39892197 3.805492401
58.31112671 45.56951523 4.070224762
64.1444397 50.33751678 3.898620605
64.06369781 51.43144226 3.972858429
66.46298218 48.96603775 3.844543457
67.40423584 48.40048981 3.847576141
69.75948334 50.52362061 3.798828125
64.98343658 50.22999573 3.81439209
65.60784149 49.63362122 3.820831299
66.66244507 50.15320587 3.896190643
67.43810272 47.18419266 3.881244659
71.4715271 48.60301208 3.778244019
70.92320251 47.326828 3.828205109
67.5058136 49.52585983 3.839931488
68.24521637 48.98713303 3.773113251
68.54901886 49.96020889 3.836479187
71.13654327 55.17319107 3.933704376
72.56601715 50.96883774 3.716217041
70.52967072 51.71578979 3.891403198
65.79070282 51.94232559 3.967136383
66.87093353 51.35515976 3.946224213
68.71704865 50.97805786 3.709251404
64.82705688 51.92450714 3.967861176
64.91369629 51.10250473 3.870925903
68.49742889 62.98734283 3.628688812
69.32958984 64.02078247 3.658237457
70.05521393 52.50897598 3.851776123
67.02735901 52.62008286 3.967556
67.1055069 53.88119507 3.839317322
66.70838928 43.12443161 4.028133392
65.37419128 42.55947113 3.942203522
64.64227295 31.63425446 20.45349312
63.06962585 32.25752258 20.74922562
63.24766159 43.43260193 4.153453827
68.98004913 43.72201157 4.061187744
71.49632263 43.25080109 3.992446899
69.73069763 44.93942261 4.071273804
68.57940674 46.7945137 3.928920746
69.75137329 46.39353943 3.917884827
64.41081238 46.56996155 4.002563477
63.52881622 47.19239807 3.840274811
64.36417389 45.6281662 3.990062714
67.84675598 43.54132462 4.151546478
63.42858505 46.05169678 3.984867096
63.61309814 44.76700974 4.074699402
62.06955338 43.09218597 4.120811462
67.52225494 41.30770493 4.058837891
69.71020508 40.52946472 4.126018524
70.3707428 39.73470688 4.205032349
71.57055664 39.99746323 4.157482147
68.61697388 40.70116043 4.086921692
62.71666336 32.48981094 4.254798889
62.89160919 30.47323227 4.345981598
61.1741066 31.72091675 4.434509277
64.22434998 30.86816788 4.199710846
64.75022125 33.42777252 4.208236694
61.65825653 33.08201218 21.73151588
69.24523163 34.44854736 4.101402283
70.66268158 36.14513016 4.147342682
71.9265976 37.42237091 4.098941803
70.45674133 37.36789322 4.129993439
69.67825317 33.47538376 4.249542236
69.93932343 35.32530594 4.18296814
68.10572052 34.49962997 4.074707031
65.77374268 34.19690704 4.209091187
68.61044312 31.06471252 4.192504883
68.84973907 30.19563293 4.272449493
69.65724182 30.79402542 4.184341431
71.61773682 35.93743896 4.118766785
71.23835754 35.04117203 4.17616272
74.47329712 40.3615799 4.111923218
74.69896698 39.27954102 4.180187225
72.7794342 38.27339935 4.111011505
72.54849243 39.33200836 4.114665985
70.20058441 43.58126068 3.975772858
71.71230316 41.9804306 4.089138031
75.39097595 42.71137238 3.907676697
74.89871216 43.53404999 3.763320923
74.29484558 42.77528381 3.824588776
70.76047516 41.01012039 4.121490479
71.87569427 40.96665955 4.094390869
74.38410187 41.16446686 3.983154297
80.72360992 38.82263565 4.20923233
79.61077881 38.88145065 4.242218018
79.32546234 37.8755188 4.33266449
81.66577911 39.42653656 4.364723206
74.29077911 56.03926468 3.715774536
72.30290222 54.60918045 3.897171021
73.1401062 57.36667633 3.788253784
73.24912262 56.47735214 3.802745819
74.19007874 57.30305481 3.765102386
71.81208038 58.84106445 3.806495667
72.42403412 60.09575653 3.760353088
73.47253418 58.02977371 3.852336884
73.39863586 67.95370483 3.869121552
72.49186707 67.01397705 3.833698273
75.3237381 63.92375183 3.993278503
76.37280273 63.19351196 4.218624115
72.14270782 61.33959961 3.813789368
73.34391022 61.27849579 3.900844574
77.51817322 64.11833191 3.88224411
77.11598969 50.57350159 3.870765686
78.14923859 50.27006149 3.910713196
75.12848663 52.01570129 3.854999542
74.38072205 50.03331757 3.829360962
74.94792175 50.85958862 3.825149536
72.6734848 48.84525681 3.766639709
71.17661285 53.98114777 3.848621368
70.99460602 52.81803513 3.747394562
72.22978973 53.3002739 3.746166229
72.26396179 47.73358536 3.913661957
73.86040497 49.01196671 3.837516785
72.07354736 46.57818604 3.90240097
73.95726776 47.31529617 3.820812225
72.21733856 45.42845154 3.790790558
73.87991333 43.86363983 3.761680603
84.06565857 46.49428558 4.166778564
82.76290131 47.9423027 4.112625122
83.04519653 46.03091049 4.149806976
84.77213287 45.00812149 4.189758301
87.00595093 41.88348007 4.452716827
86.26280975 41.36090851 4.422863007
93.76649475 47.09634781 4.012794495
85.60406494 45.58694077 4.153003693
84.72966003 45.8843689 4.232128143
88.20946503 50.55870056 4.205043793
87.60977173 49.65240097 4.235340118
88.99163055 48.13696289 4.165756226
87.0091095 50.24058151 4.077465057
86.42056274 51.96355438 3.893798828
86.10147095 50.88636017 4.024112701
80.85311127 61.76891327 3.915904999
95.02986145 55.97242355 4.177711487
96.0982666 55.9251442 4.105037689
91.13191223 63.65319824 3.803733826
93.08289337 61.5486908 4.099964142
85.57859039 61.747612 4.003620148
86.44213867 62.49846649 3.863422394
85.38767242 65.67087555 4.020496368
85.74263 64.66255188 3.993297577
88.07844543 64.82332611 3.924427032
86.41572571 65.68257904 4.055541992
84.72995758 62.30914307 4.117660522
81.26069641 69.14763641 3.580745697
82.27508545 69.16557312 3.591335297
85.16437531 66.46150208 4.037513733
84.4691925 65.8972168 3.954486847
82.57585144 65.94848633 3.885562897
83.43893433 65.10749817 3.874897003
81.89482117 62.51541901 3.908229828
84.93347931 63.55575562 3.955272675
82.96829987 62.13780975 3.965492249
82.87405396 63.19480133 4.04309082
81.93415833 63.6264267 4.014312744
89.66448975 58.30899048 4.124519348
85.60433197 57.11207581 4.141147614
89.04175568 54.28484344 4.328464508
87.96320343 54.77497864 4.289264679
88.21968079 53.6482811 4.120998383
93.80846405 48.67900085 4.08134079
89.17420959 53.3083992 4.144790649
85.35743713 53.75450134 3.907855988
82.42927551 41.87385559 4.201683044
81.74776459 40.85229492 4.149612427
87.93119049 40.69585037 4.433250427
87.50017548 40.0232048 4.419086456
87.17138672 40.95151138 4.511547089
87.82155609 41.48584747 4.38237381
84.26264191 40.28531265 4.16355896
84.32185364 41.51229477 4.289718628
85.39543915 41.96167374 4.363948822
84.52990723 42.67951584 4.165306091
86.44134521 40.28053665 4.341796875
85.34874725 40.80628204 4.317333221
83.64361572 43.3977623 4.111663818
83.40604401 42.23622131 4.264938354
85.73594666 43.14414597 4.263050079
83.0611496 39.66876602 4.221229553
72.54405212 44.20056152 3.920886993
88.06078339 39.10620117 4.293525696
87.54431152 38.07645035 4.30739975
88.36164093 36.96506882 4.273296356
88.66955566 35.69805527 4.468410492
90.43539429 37.26766586 4.291294098
87.02220154 37.04670334 4.597614288
87.61125946 36.00710678 4.549015045
85.04201508 38.18319321 4.490634918
84.50512695 36.98072052 4.569725037
81.63166809 38.44943619 4.408226013
82.11434174 37.52232742 4.398735046
83.2540741 37.36305618 4.416370392
84.02431488 30.41187668 4.307735443
82.96816254 29.42308426 4.440753937
85.80636597 37.04497528 4.740280151
85.4453125 35.90477753 4.553668976
90.69358826 36.10118484 4.340969086
87.93812561 35.09937668 4.606761932
86.53726959 36.00447083 4.6328125
89.89533234 34.29782104 4.50201416
87.15263367 35.2100563 4.572395325
100.086113 42.55727768 3.99930191
100.7313843 40.37678909 3.807285309
100.220314 41.38136292 3.913642883
99.09669495 46.70099258 3.836658478
97.07952881 43.36618042 4.269939423
97.2589798 44.60470581 3.989551544
99.58821106 45.51874542 3.802822113
91.62580109 45.92383957 4.257865906
94.03404236 47.96691895 4.036174774
92.94913483 48.02051926 3.807971954
96.39286804 49.9357338 4.255645752
99.04112244 44.5711937 3.993076324
98.53872681 45.74659348 3.875911713
99.06718445 43.24462128 4.078308105
99.78901672 43.72024536 3.919845581
100.669632 43.452034 3.775104523
101.3416901 41.45953369 3.671257019
100.6479187 44.79484558 3.646697998
96.94281006 46.41785049 4.075016022
97.53761292 45.67361832 3.954586029
98.10644531 44.93369293 3.979621887
97.90908813 46.72606277 3.931964874
95.90534973 48.04797745 4.040348053
95.83049774 46.63570786 3.962451935
102.82341 44.58795547 3.222354889
102.126915 43.11026764 3.527938843
101.4115601 46.44705582 3.528160095
99.9942627 47.47834015 3.876686096
101.4076233 45.19782257 3.507133484
102.96978 46.2386055 3.049983978
100.5382843 49.52685928 3.843578339
95.55001831 51.51251221 4.090866089
94.180336 49.53104401 4.101547241
96.90516663 59.74755859 4.044208527
95.83477783 59.30858994 4.141395569
95.0738678 62.24523163 3.893501282
97.13645172 61.09196472 3.892261505
96.01687622 61.78910828 3.864528656
95.8605423 70.71089935 3.937870026
94.83105469 70.28717804 3.946445465
97.31434631 69.95757294 3.851520538
98.24485779 60.15696716 3.86309433
