# .PCD v0.7 - Point Cloud Data file format
VERSION 0.7
FIELDS x y z
SIZE 4 4 4
TYPE F F F
COUNT 1 1 1
WIDTH 1105
HEIGHT 1
VIEWPOINT 0 0 0 1 0 0 0
POINTS 1105
DATA ascii
76.71659443 85.54184436 8.295326214000001
61.250875147 89.7023827 -0.35642702718
70.05722969 87.3144671 13.513047618
62.694791705 89.84954062000001 -0.39668992397999997
62.11379542899999 93.93207725999999 -0.33938208073
63.757608089 94.35753971 -1.5271177746999998
65.094462783 92.35599191 -0.7690485103
62.859097868 94.48536929999999 -0.69436340127
64.1001977 92.97030421 -1.4074975390000002
62.384240331 97.45372833 -0.44268801576999994
63.326440008999995 92.16813298 -0.9751613718
65.139357003 93.65624485000001 -0.6331555544999999
64.756749568 97.98809888 -0.759200519
65.093289317 96.06136085000001 -0.5333321052500001
64.11717906300001 95.63654513 -1.3288694202
65.75935930200001 96.94794864999999 -0.9724482194
66.344110665 94.64105966000001 -1.2138804657
66.913925113 91.91118033999999 -1.0990795914
66.489349304 93.55786146 -1.3941667971
66.19987339 92.66934396999999 -1.1421585224
66.300092635 95.87410686000001 -1.0721253927999999
62.342021616000004 92.67108592 -0.2899194718
67.07831472299999 100.19001216000001 -0.7788307379999999
63.262723384000005 100.03821254 -0.8880205684
66.013620792 100.55994095 -1.0417914486
65.51761478499999 98.77946379 -0.8226613395
66.766558586 101.28895042 -0.8297328606000001
64.470569786 96.83263597000001 -1.0825350179
67.450235783 99.14046379999999 -0.7124910128
64.113710822 100.12298372999999 -1.1959798865
64.98647779400001 99.79189934 -0.62428789682
61.596839128999996 96.46622244000001 -0.4027382471
61.572931707 98.45690134 -0.25499572511
59.131167081 100.059554 -0.28320025594
63.790063561000004 104.4801429 -1.4203038066
64.817623794 101.93923859 -0.62215952204
62.283103169 107.04694685999999 -0.14309190735
63.289259376 103.29455584 -1.4729588754999998
61.765818296 105.06673009000001 -0.17515671495000001
62.771682442 96.40711101 -0.7991091346
62.482164801 103.24697047000001 -0.9753882417999999
64.330796894 103.12435629999999 -0.9668975603
62.787912788999996 102.39334406 -0.7656873434
65.54123013899999 105.73226810999999 -0.60897407823
66.504327953 102.377072 -0.7899702762
67.386399206 102.84823178 0.023424590469
64.85150307299999 104.94030862 -0.48451378241
65.11765569399999 103.88878885 -0.57213285472
68.330846724 104.96420564 -0.23861780061
66.024343672 104.62648721 -0.9262170645
67.37250536799999 101.86395940000001 -0.30971495436
70.15248387 103.43015641 0.07159420639
68.738232556 103.45307294 0.08450755264
68.437241019 101.87339931999999 0.036650616674
67.241661249 104.15225029999999 -0.10485324017
62.326912584999995 106.09926579 -0.17092154009
61.321846397 106.37262615 -0.08956113887
70.23317665 105.73244541999999 -0.058477479613
70.65708489 104.91242706 -0.09894921679999999
67.867968973 109.62736309 -0.12619337941
67.50122159899999 108.75309410000001 -0.18660887147
69.300203028 107.21275509 -0.07785756314
69.715099034 104.64986266 -0.10212024501
75.96436589 105.00711802 -0.062357904973
68.83160918899999 99.66395495 -0.036177848231
70.29930803 100.62735529 0.03621223732
70.13208118 97.31083663 -0.11559860725000001
72.0702514 97.43097875 -0.039766577536
68.021009861 99.85630956 -0.25299268309
68.658666314 100.59484246 -0.10821281758
67.64904707400001 100.91689377 -0.21323015973
68.444626033 98.73929471 -0.054682334301
68.37373823 97.50244021 -0.012145785148
73.6814365 101.18160696 0.031017814765000002
74.12908524000001 97.59593158000001 -0.021491752702
72.98298924 102.17991917 0.0018326449211
73.35591165 98.51191342999999 0.012888410129
75.49568859 100.21853002 0.13488760453
74.95591488 97.41413297 -0.09555056455
77.50725003000001 100.29845091 0.15695924524000002
76.56751725 100.31713244 0.12504095793
76.02724283 101.30375178000001 0.23919601811000002
72.77324649 104.55243882999999 -0.08200967859000001
74.84885303 105.45545521 0.08972344801000001
76.43729898000001 103.70708404000001 -0.0063656072599000005
70.6312999 104.16997226999999 -0.07846328371
73.41202946 103.37340237 -0.12381664127
72.14130609 105.69824279 -0.063859779039
71.50590272 104.50797231000001 -0.08908176970000001
69.924883546 106.61695751 -0.066300365145
71.55104726 106.543003 -0.11223768521
72.0823929 103.20977422 0.0008315313608
71.07135504 103.54820189 0.009405741002
77.36313788 102.82225905 0.06333288038
77.45013087000001 103.82533819 -0.040474344862
78.25864403 103.39004991000002 -0.12392094939000001
79.07374951 104.09626814999999 -0.10860835321
81.89402746 100.16947388 0.008633045946
83.60468074 102.06767319 -0.038451194999
84.89384575 96.84001061000001 1.3142987151
81.41996786 104.43796069000001 0.0019583443642
82.46501011000001 101.34571496 0.10140498053
83.86749553 103.26322167 -0.06383950822199999
84.95513719 97.53934442 0.44105221167
80.4785296 102.62794346000001 -0.051301813801
81.79401678 105.23787883 0.13876908927
80.80100343 105.09688553 0.027284520914
82.8663878 100.52524804 0.10509728453
82.24337625 104.53959851999998 0.07094778124000001
83.09799358000001 104.09682094 0.045058381508
86.57525107000001 99.50907826999999 0.09118233572000001
82.82366323000001 105.16990127000001 0.1957212866
84.34368299 101.36091259 0.0035222328735999998
80.75941055 100.38716491999999 0.056343624603
82.91182445 99.6825844 0.12124397908000001
83.72897428 100.41083248 0.11811489822999999
83.40036201 101.12457124000001 0.11579946147
83.78434106 98.08669087 -0.07577358047
84.0425663 99.35776886000001 -0.13164070843
87.73374407 97.14776127 -0.44579647945
82.55597202999999 97.9331598 0.28283772405
83.94939826 96.48403821 1.4890356921999999
83.79406259 97.38254848000001 0.8753076892
83.06090681 95.63108982 1.3948244275000001
82.32762069 94.89946214 1.0998826006
80.90406506 93.9361766 0.9550191462
80.97833247 99.38879013 0.051274045837
83.39844793 93.79036429000001 3.4718073907999996
83.37291333 94.77800577000001 1.6157487171
84.08332989 95.49855588000001 1.6561369873999998
81.82231036 96.07222975 0.8287026545
81.23735039 92.10901112 4.6767745633
84.80234665 95.78790662 1.1835587442
85.49566193 96.20542078000001 0.24808184828
84.70100092999999 94.65599653999999 1.3360569019
84.98521969 95.22387084 1.5611957291
87.54757493999999 99.58852974 0.19204833661999998
84.85858961999999 100.44460740999999 0.12635528108000002
85.37529035 99.50836896 -0.09031380757
87.25216913 100.52068978 0.13140379448
86.09305544 100.51577689999999 0.21887659094
86.64526269 94.71795557 2.0655253667999998
86.16686385999999 105.04225942 -0.058561089097
80.0879583 98.89544398999999 0.0829001481
85.86023971 98.53634238000001 -0.027103305908
84.7809844 98.61350954000001 -0.1116554544
79.05505748 98.39618355 0.07004926446000001
79.06820026 96.31037563000001 0.10411576951999998
80.12701123000001 97.94644860000001 0.042699550978
78.17874400000001 99.49432906000001 0.13730739008
80.54566233 101.39457286000001 0.019085005625000002
79.46682422 101.77728981000001 0.13434556898
79.26847187 102.97303646 -0.060272231348
77.240555 101.44966839 0.11721813355
76.60473436000001 98.30291121 -0.039453449427
78.44819276 97.22489714 0.016184261765
77.09961385 99.35397206 0.068651739275
77.75241586 98.34671021 0.025029835522999998
77.20872012 97.20852078 -0.07952889721
74.93405192 102.44550855 0.07317944543
75.56048486 98.32793474 -0.14340690979999998
75.99903794000001 97.26066441 -0.19266147285000002
76.06767266 99.28251060000001 0.08043855778
74.57919566999999 98.47318383 -0.038556358778
74.87568109 101.35652128 0.008257821901
66.866068542 92.40889700000001 15.715890561
76.37771813 102.40091679999999 0.14415069599000002
76.53201073000001 96.09658569 -0.17482506811
82.13218895 94.62780208000001 2.6699492477
78.93673032 94.28189547000001 1.2128690028
76.58387275 90.07012098 7.462635725999999
76.49249881 93.9577058 -0.10679581612
77.1306977 94.96008606000001 -0.023307345690999997
77.0968184 93.03720741000001 -0.18118857694
77.63938756 93.94948633 0.041676394179
77.97258945 95.95567582999999 0.056697212859
79.02443262 95.37235351 0.6162059318800001
80.16005606 96.05606198999999 0.8488341232
81.18536321 94.93598044 0.9677450636
78.43158694 91.93319975 0.64488977077
78.30136867 94.71655788 0.28348366032
81.66484683 93.88850778999999 3.07378876
81.69889300999999 94.38550471 1.2236127399999999
84.01310967 94.81924921000001 2.8245549184999996
84.56386176 93.85973960999999 1.6198582946
82.58125631 91.8823913 6.858525425500001
81.36310427 92.05174593999999 8.190206437
78.26035469 91.39504283 5.566939805
79.09377665000001 89.44467902999999 5.216527078
79.01980135 91.7613417 4.056433262
76.72047467 90.06378948 4.680341575
77.40857453 89.53127561 2.6443298671999997
80.76429221000001 91.02316349 8.522948714
75.24814458 89.12296148 4.311737185
75.29879658 88.77691927999999 3.5160956439
78.86968103 87.67441361 9.744855204
83.24469776 90.50090315 6.479823682499999
75.87908356 89.58746643 4.6223667917
77.53019778 90.64551594000001 5.4217220281000005
76.50522439 89.75196034 3.7972480987000004
77.32721416000001 90.66774395 6.763249728900001
74.21916571999999 88.28438668 6.3052112235
75.56866260999999 89.06160739 6.730413529700001
80.6330308 91.14227297000001 10.013595319
77.67998427 89.76562469000001 6.8520993926000004
78.20177526 88.63905519 5.9055024756000005
80.42796104 89.99575970000001 7.669499607
78.28192561 87.4822676 7.434096376
76.82048528 87.4900803 6.8818474186000005
79.33931796 88.88684959000001 9.631409683
78.37559429 87.37716673 8.666914144
76.03859158 87.58371769 7.415028844999999
76.53447242 88.97179809000001 7.637163436
77.41207929 88.10707332000001 6.4953649418
73.82734268 88.33919017000001 4.9570495261
79.81921878 89.48659006 6.5588892438999995
76.84172244 88.20502908 0.5636120622299999
74.13179725 88.52543238 0.21614086578
79.00503128 88.32785192 7.296701706
79.82364145 88.9364168 8.146082798
76.29690019 89.13622949 -0.26171538918
83.3725795 89.50222581999999 5.9652091002
76.33499356 90.67931173 -0.2722918667
78.46830341 90.37708939 2.7367890809
77.39376274 89.92099165 -0.2620072686
80.02954575 93.50868016 1.5264816581
82.69278255 93.03289947 5.2049286667
78.9815411 90.58419314 0.63963231514
80.43442813 92.75375010999998 2.8804011642000003
81.16178959 93.40800196 3.6484219135
81.30185455 93.267405 1.7991429428
80.12212964 92.68225729 4.2384095488
75.18122045 90.38268029000001 -0.27049782802
75.25102347 92.36009118 -0.29999569817
78.34647149 91.01805237 3.557214234
74.80562775 89.27240371 -0.15502899475
77.5966212 92.10514131000001 -0.11616311385
74.35977310999999 87.89517135 1.0705076389
77.77699083 88.88296935 1.2202735754999998
75.27789324999999 87.70867882 1.4247171813000001
75.49051496 88.15435615 0.52232682355
78.1159505 90.48769772 -0.0827431766
77.53975243000001 88.83420525 0.12019833083999999
78.08111164 91.28341229 0.08669513048000001
78.93389315 92.94038859000001 1.2411570409
78.30203626 89.6032795 0.38092713217999996
79.47262379 91.546686 1.3663473306
76.10117641 93.02203057 -0.30865313017
85.56559011 93.93664595 1.7519332467
83.91281219999999 92.36525445 3.5278413912
80.26336283 92.23482758 1.8073622602
106.72628281 90.79439488000001 0.24985378257000002
106.64120915 87.23286691 0.16404906056
104.74192498 89.91497304999999 0.039088574707
102.95095446999999 88.55247947000001 0.21812272027
104.14820311 88.35711031 0.10098465139
108.85537866 90.10196629000001 0.29531110196
109.87271666 90.09599984 0.068753847155
106.18621706 89.69016819000001 -0.006076885620399999
107.04221129 88.95632920999999 0.18983443731
106.7917466 91.88756493000001 0.2884480753
108.36417080999999 91.21690543 0.12935715492
107.43970874 91.21582064 0.34116519961999997
108.93419383 93.50186881 0.23593973018
109.35797691 94.39938816000002 0.39019083488
108.14967156 88.77224622 0.32893971656000004
107.52424004000001 90.08643476 0.41799832248999996
107.19329117 88.08754682 0.07373928674
103.29992771 85.58784423 0.22081317727000002
107.15190170999999 86.18358973000001 0.21182193886
103.18502187000001 87.64066997 0.31627646533000003
110.40264368 88.3331925 0.36663659263
110.76901555999999 90.52369445000001 -0.030338772919
109.49478743000002 89.12259636 0.3421243455
108.24417471 94.10008635999999 0.36265340748
109.75622532 91.24284687000001 -0.08616429983
111.09454034 86.50964651 0.1372625702
111.67983414000001 88.77383172 0.50841228221
112.58902549999999 87.72715182 0.39573839745999995
112.5354111 93.81394834 0.24380464458
110.59018970999999 89.45425454000001 0.24689110579
112.12189198 86.86090413000001 0.16050250272
110.19290093 87.20933494 0.34750623747
108.22531579999999 86.13466918 0.16571774610999998
101.39517787 90.44091553 0.20335313747000003
103.36868765999999 89.56805466 0.18578744492
102.25797295 85.58157531 0.27104797187999996
102.74642707 86.6580561 0.40900614692000004
102.00734138 89.29436061 0.26343433417
100.80091357 87.29394975000001 0.33002419513
99.8098612 87.95636892 0.13400852332
100.64219829999999 86.15991174 0.26020004877999997
99.76767899 86.76036152 0.17130882482
97.22710851000001 88.54788992 0.10177743387
98.60697987 88.64370732 0.11959330291999999
97.87895082 87.75440751 0.17397931663
96.79043290000001 86.40681952 -0.057897958321
99.27279949999999 90.93267617000001 0.18132338300999998
99.90102647 89.18943705000001 0.08769599951000001
98.79143834 87.34759537000001 0.10334177056
98.14393519000001 91.04881289 0.17944587745
98.96025062 89.99590579 0.08316923048
99.12785295 91.82167351 0.17516940713999998
100.81121925000001 91.39358248999999 0.24851880151
100.11573432 92.24393366999999 0.23762923667
100.16905668 90.42946248 0.10098514034
98.22984339 92.20325352 0.042218348242
97.16143604999999 92.01962945000001 0.12679133796
96.62500022 94.32037475 0.0709661981
98.58023524999999 95.30646202 0.15889819477
99.04945491000001 93.07340238 0.031474855496
96.01141809 91.98568764000001 0.13365481283
96.54301405 90.7861024 0.19484167570000002
101.60546305 95.37418933000001 0.33586740607
94.45430638 94.52241959999999 0.0014344404914
98.14209937 94.31530535 0.044763996263
99.54133035000001 97.68818171 0.25628083383
101.09819173999999 99.55053031000001 0.30238543405
105.88330627 92.72804856 0.27864331495
95.27053830000001 91.25515518 0.044763262852
95.15830275 92.12765099999999 0.14623441385
96.18965986 95.48608062 0.07878959298
102.56263612000001 95.36867144000001 0.40629617287
95.13364433999999 97.1369028 0.27509785723
103.73789671 91.83208349 0.17072588092000002
100.49224493 93.31178815 0.18943912582
101.87328459 93.31889154 0.15603966315
107.15736745000001 93.28896549 0.432205823
101.06506347 94.36990023999999 0.16749294009
109.02719499 92.46728869 0.14744446962
108.23645595 93.08518919 0.34842553430999995
105.68766593 91.20178074 0.07805841743
109.84271767 93.49185523999999 0.32879482608
104.79324457000001 93.67333052 0.26714876293
110.82475782 93.52907241999999 0.27630697583999997
112.36113307999999 91.87420311999999 0.45189887169
111.10964417000001 91.67874009 0.12380804401
110.37289501 92.57422538 0.12939920413
110.6125951 94.49360970000001 0.45951401699
111.64416074 94.0656647 0.24086319607
108.64254835 98.0115682 0.19724247396
104.82124093 95.0092465 0.43635769400999996
104.75193854999999 92.29186323 0.16630333846
103.44554185 93.20994171999999 0.09983840278999999
100.03650188 96.65312174 0.25619710214
101.07148884 96.48743867 0.35489345318
102.03604698 99.54197708000001 0.32328878295
101.30960343000001 98.58200849 0.34730031042
103.24831608 102.03750731999999 0.24078166461999997
102.13263634 101.47698673 0.49589832194
103.35879924999999 98.0023891 0.29629347265
102.09178924 96.33918553 0.47866539679
98.41179844999999 96.32905723 0.26218434795
99.37251807000001 95.84215732 0.12937911672
100.61920883 97.62639999 0.33267606631
99.26695821 99.90625232000001 0.40425287441
100.43374894000002 100.28060377999999 0.44351453544999997
101.66779756 97.45990338 0.39081741705999995
97.45475053999999 97.00484871 0.31020797325
107.08105562 101.99458451 0.30430531481
97.38711717 95.60991523999999 0.18309772131
96.30619284999999 96.52246534 0.24781072861999998
94.11659838000001 96.45004418 0.15622815117
98.5110581 97.45389521 0.3163622343
96.37891648 92.99429502999999 0.16688762699
103.45167518000001 96.94270193999999 0.3501788073
82.26511923 88.54445817000001 11.221232449
93.56476668 104.48211431 0.33924910824000004
95.24980185 96.01022900000001 0.047080044172
95.02174255 101.39599141000001 0.1126702584
95.82796097 99.21286403 0.29347743838
97.02149632000001 99.08434599 0.43068430972
97.60441186999999 99.93818107 0.46971665579999994
96.57672647000001 100.10127722 0.3252082155
97.69303201 98.21266385 0.40571278076000006
98.38968516999999 99.66773096 0.37819662251
93.83918047 102.82771436 0.10253187504
98.34725264 100.63717069 0.33453348438999997
97.25039002000001 100.97549405999999 0.32109867895
97.91132806 99.12605885 0.42571924275999995
99.48366882999998 101.35126414 0.38184781439000004
97.78862002 105.65232635999999 0.61837798568
97.06526396000001 103.13429685999999 0.27945936305
96.43324019 105.27291593 0.45131792433
98.16821812 103.43310831 0.36853858622
94.8088288 102.62857976000001 0.18967080398
96.21803163 104.07498927 0.32281006569
95.42044994999999 100.31940639 0.23744339703
93.32886339000001 100.76688825000001 0.15704281397
97.32862118 104.32276281 0.48014852801999997
95.94912529999999 102.96551587 0.24566348877
95.3510642 104.87465709 0.31709418398
95.18521425 103.79635097999999 0.22513585283
98.02615046000001 102.03091500000001 0.30639147735
99.11896589 103.99291959 0.48840965026
98.30043909000001 104.48551477000001 0.5472812394
99.01540873 105.1469013 0.65327932243
99.81924889999999 105.63497987 0.51350659339
100.04985332999999 103.50676028 0.43099829346
99.9450445 104.65283542 0.59152882894
100.13751391000001 102.41465423 0.45377894422
99.15497305000001 102.75852678 0.40654830516999996
106.16994500000001 106.33827742999999 0.59578500807
100.98837615999999 101.62453056000001 0.50063399246
100.91339944 104.21484563000001 0.49053753609000006
102.07530858 102.53475456 0.34066720982
103.29504612000001 99.45562032 0.33036083332
106.6316545 103.23863627 0.4719079414
101.94942954 103.76550702 0.36820488166000004
80.88278618 89.24601378 10.299983715
107.16675522 100.84966717 0.29502160611
105.07012012 108.68839177000001 0.30359760858
105.19896149 109.52737334 0.30937648259
110.22123097999999 106.18662389999999 0.7731921505000001
104.76132632 103.90581194 0.31757375692
105.68495392 104.15505617999999 0.48133755915
106.8150699 104.51185255 0.52627358238
110.73000428 104.32914645999999 0.8988413959
110.58935524 103.39714287 0.898110913
109.8362923 104.24675345 0.8786680413
111.0854864 98.6177549 0.42432143236
108.35077764 101.41260773 0.39115209945
110.67885157 101.52643921 0.7640746421000001
110.47144535000001 100.58498534 0.64434948725
109.68145727 101.44566299 0.7312174190999999
111.30257250000001 99.77378103 0.53061165962
111.47096751000001 102.32624262 0.7407723694
114.17200564 99.19573663999999 0.51187783829
109.33298466999999 100.35127249000001 0.53699548007
113.57039806 100.10543914 0.47760235026
107.42176774 106.78711533 0.69010045846
108.05141333 105.84897848 0.7737971374
107.91973472 104.88858225999999 0.6808791717
105.43327928 107.07287787 0.54425695562
103.88042329 104.18266656 0.15091031087999998
104.63486312999999 102.08752301999999 0.36127841449
103.94188168 100.88617504 0.42252790300000004
103.02317739 103.37008535 0.17054089696
104.14949657000001 109.29736349000001 0.27614383146
103.71557476 105.24281264000001 0.30094736721
101.54771801999999 106.18354677 0.25175585763999997
102.62530446 105.62969151000001 0.20573498911000002
104.14486529999999 103.14269364 0.27073920356000003
102.64708397999999 97.24523724999999 0.45874278876999997
105.33514621 100.97156167 0.54713439312
105.74215652 99.78366944 0.5076638714
102.6913524 100.67690164 0.40600541393999995
106.36112095 101.33047554 0.36536713017000005
106.26357196000001 100.5340308 0.35207811163
106.36942386 98.74050465999998 0.6113876297899999
107.32492805999999 99.1332874 0.49253911126
112.81153562 101.39143315000001 0.47138591178
105.77774641 98.02223893 0.44338879521999996
102.35931874 98.41095354999999 0.36277955511
104.29728028999999 98.54206887000001 0.21785392307
105.32529952 96.70381546 0.45571769004999996
109.93576048000001 95.50517948999999 0.51997125264
106.35749103 96.45118119 0.3203882836
104.30925490999999 97.16813267 0.32687645291
103.0597687 96.12348676 0.41622655115999996
104.00868058 96.01806256 0.38201340359
105.72083592 95.54157256 0.42010665052999996
108.04094076999999 99.96967169000001 0.35589562610000003
107.74357916 96.74360899 0.13069360283
108.11958906000001 98.90561401000001 0.41727028440999997
106.78578022 99.82424529000001 0.50768481449
107.45602251999999 98.16135469000001 0.40815359095000003
109.46395397 96.80233451 0.28917937306999997
110.22231577000001 99.47242437999999 0.46012014503
110.58580875999999 96.36720268 0.43443875041
109.90880726 98.25564924 0.29915159687
116.89536572 97.82422034000001 0.55829462948
111.60802842 96.53975961 0.35977507356
110.81695555 97.3959938 0.36140244335999994
117.18888881 103.49929184 0.24274302416
115.00655411000001 94.62142886 0.46568905817
115.63298705 97.55876662 0.33878852266000004
115.55321218 95.91056258 0.204209768
113.65697385 96.3388622 0.40358440598000006
113.44072222 97.37199248 0.33901791903
114.73539468999999 100.07293674 0.50941632945
112.15952636 95.61531839999999 0.32627105826
111.09520793 95.57040332000001 0.47762215256
112.73105143999999 96.50930163000001 0.35017872575000003
111.62826416 94.88940685 0.38005216627
112.50995994 94.69660375 0.27670363196
115.86768032 99.85355582999999 0.49080775933
116.25328659 98.74732644 0.51269127868
115.55137635999999 101.13601386 0.36880921686
114.21861052 101.19844231 0.41539330847
116.73919558 100.64494160000001 0.43473187254
116.67581799999999 101.77554786 0.31828252246
112.77027132 102.90888699 0.48964024172
114.91000654 102.1481678 0.36392784091999997
113.83888719000001 102.32729612 0.35860820793
115.83229896 102.19992545000001 0.38339173768
114.1376257 104.50713784 0.65440568725
111.19417547 105.15469313999999 0.7906323068000001
116.35162833 105.14705775 0.55694033507
111.73812153000002 103.8973838 0.741961808
114.63346482 107.87852257 0.57734365689
114.34720157000001 105.80541937000001 0.62768227074
111.77871823999999 106.43606630999999 0.69719341118
113.11899423999999 106.16129783000001 0.61798169629
114.59274294999999 102.93910501 0.36922693836000003
114.91597292 103.76843813 0.5260439415
115.25138618 104.84791247000001 0.58247488341
116.16437434 103.93996242000001 0.45889044991999994
115.49350616999999 102.99203096 0.39125681504
117.30709074 105.58446346000001 0.5988096993199999
117.81144144 107.44949278 0.57694720454
117.27008223 104.46136743 0.41009518899999997
114.75241777999999 88.27621935999998 0.38215764216
113.07814714 93.01561563 0.41687252817
114.83311056 90.54968804 0.62903460928
113.63861557999999 94.33765859 0.28308720797
114.5558596 93.14198495000001 0.60598316485
114.76268173999999 91.71964969999999 0.6841721712000001
115.8160269 92.46879068 0.8097175974999999
112.43782046000001 89.8077026 0.549468206
113.61195447 91.93568230000001 0.56319564462
112.96086312 90.86834938999999 0.61812406054
113.76249191999999 89.86508251 0.7232872304000001
111.68897152 92.94263125 0.31145869286
111.43967506000001 89.86158817999998 0.29687568315999996
111.33762003 87.55154905 0.31416940037
113.27821015 85.38010418 0.14139292762
113.06771636999999 88.78363669 0.6662722036600001
113.84235023 87.86772785000001 0.45198142178
115.89530113 93.80064904000001 0.6632276287
95.28063538 90.11424331 0.040715822252
94.31253075999999 91.82918366999999 -0.049155633317
93.0461049 91.28341229 -0.11889619056
91.33692232 90.90178012999999 -0.17958274110000003
91.55408143 93.72493179 0.19165053964
89.89709470000001 88.67454084999999 -0.30045552991999996
92.51872301 90.22838769 0.056174327622
92.08617803 88.62388878000002 0.066500465619
92.82317757999999 88.22048753 0.041257776322
91.73871728 89.52183576 -0.07498287594
94.16599871 89.59569633000001 0.08375323376
96.9102204 87.47463228 0.11930095499
93.96852255 88.35737106 0.1587922161
91.01494402 88.59683125999999 -0.12288139262
95.13548016 88.95168751 0.22185703274
95.05595568 87.98294666 0.10380088936000001
91.05403867000001 86.54256611 -0.0044504529797
94.43486331999999 87.20470367 0.0028095557356999997
90.22082538000001 89.66263089 -0.59239291587
91.84794871 87.59280292 -0.17203162718
90.24757 87.63603863 -0.11754106091
92.97000167 89.25050945999999 0.13930766143
89.13889971 86.06920539 0.5716640793500001
88.94572106 88.19594385 -0.28900261971
89.18946833999999 88.94459455 -0.8700404552000001
85.60322967 88.2543564 3.8293326274
87.55337444 87.48384267 -0.44648719486
88.17776296 88.28492911000001 -0.5942290648699999
90.62658402000001 91.98967218 -0.4098322592
89.21007963000001 93.42927041 0.018415559316
88.93858638 90.70139379 0.48033302303000003
89.57878797000001 91.19674263 -0.922047917
89.65764493 92.46230273 -0.34972979335000004
88.24118225999999 93.94137115999999 1.5686638653000002
87.47626468 92.61419622 1.4416996853000001
85.24082154 87.51968295 4.4287705791
86.2987146 85.96081886 2.6999880327
79.32037561 89.25938608999999 10.793840980999999
86.29445356 91.44413026000001 0.55687449055
85.08502695 86.47859394999999 5.1306808364
80.25435061 90.71601777 10.920387597
82.59890527 89.25786317000001 9.415993188
82.14879484000001 90.79697130000001 9.681227899
82.86397308000001 89.76341339 8.77426872
82.83981531 88.46601841 8.278762737
84.50932952000001 87.97429948999999 5.2459413188
86.61359994 87.13230344 0.58935498237
86.62423937999999 86.94008442 2.0745566583
85.92224571 87.17578947 3.1647438186000003
78.99702041 87.89568242 12.087177669
82.46651742 87.79400287 7.436724939
81.62591906 85.85379866 9.129540902999999
81.94117995 87.05058845 11.526645347
77.22503397 86.34325413 16.921107098
79.51234431 89.69325575 13.740190303
90.35221188 95.22726087000001 -0.0884790032
80.81077186 88.30039799000001 12.127920427
80.64905254 89.74303155999999 12.173440496
94.62474588 92.82096621 0.15977377185
91.93727822999999 92.43258535 0.057864648989
93.78652570000001 97.58565726 0.38409997360000003
91.46512745999999 96.00669295 0.0035835546439
89.11243677 101.29795221 0.00030954252000000003
89.3263623 95.67780943 0.004042428918500001
92.45555403 95.45048030000001 0.12324567654
82.17737527999999 91.94717707000001 7.843444497
81.5667972 91.80866632 9.995884451
94.86377838 98.37768969000001 0.35134738429
91.44484999999999 97.18311134 0.31097989412
91.42365456 94.80314403000001 -0.14305311776000001
93.44714883 92.63956401 0.0931625604
93.37701197999999 94.74973829999999 0.21599630129
92.30664373 94.49629042 0.18532967075
94.32792663 95.43758777000001 0.022296269891
92.76159403 93.64123495999999 0.25185719132
95.50552368000001 92.73858369999999 0.17254108676
93.98345950000001 93.70071143999999 0.21693482993
94.53554152000001 104.45960462 0.27205381196
94.57926751 99.54658749000001 0.29176686658
93.63235832999999 99.96473788 0.22503064829
90.79238175 107.11574853 0.37221112873000006
92.29153989999999 108.50528927 0.61785709692
93.44698188000001 103.47768963 0.17035314233
93.79124048 101.75467582 0.057053245837
94.28791407 100.5991399 0.16899648472
92.48964193 104.88991737 0.5118165572800001
92.7337229 96.65920285 0.21720676453
92.63116716 100.13172477 0.192486553
91.32785795 98.15596196 0.3824312065
92.43202206000001 101.50874853 0.1491572824
91.7432964 99.16297349 0.30082073063000003
91.13250972 101.90700736999999 0.14390023424
90.32162874 96.48501870000001 0.26205921896
86.43093032 109.32646542999998 0.32898632928
89.90764019999999 108.17416309000001 0.32176796232
89.14086076000001 97.10417094 -0.00050507951529
89.53601125 98.61930904 0.13703598524000002
90.67705871 98.68442864 0.35387172247
90.47432541 99.66553001999999 0.12001314317999999
90.70644233 92.87632256 0.27956122649
88.31916303000001 96.07860297 0.27722549855
89.48027942 94.53734605 -0.22835636628
86.4663534 95.5007151 0.9163004578
82.9768345 91.06535613000001 7.779753303
85.16488001 92.80301478 1.3791356698000001
85.19183841 90.07131007 3.287994955
86.71886251 93.30078366000001 2.0386344055
86.10974477 92.21660497 1.6080294272000002
88.52448311 94.77892368 0.06641848595199999
87.20105814 98.45948812 -0.18137504812000002
86.94637938 96.13239467999999 0.0031245988795000003
88.39989753 98.07194173 -0.09325562281
86.81891484 101.61784437 0.12045172622
88.00957648 101.54315976 0.10808074151
88.2894978 100.36121312 0.24443204163
85.63789654 95.41060326 1.4611433725
88.35583778 99.13849232 0.24872925132999998
85.53513213000001 94.84505505999999 2.0570346853
88.38590977999999 104.27018105 -0.026830739809999997
87.36678286 105.34558741000001 -0.09892825327
84.52372404 93.02834121000001 2.4941688639
85.59154716 91.17022754 2.3085207677
84.45492237 92.01911838 2.6737036879000002
83.25345966 92.38305985999999 4.7007028481
82.87870136 91.73113404 5.5224002337
81.32705539 91.96349085000001 9.223816546
80.75169179 91.20905101 7.3366523720000005
79.5903668 90.11176083000001 10.342478845999999
79.05205336 88.28307243 10.840132925999999
83.82485958 90.51212666999999 5.233946536
84.03552024 91.33901896 4.2322759052
82.85537806 88.58724532 7.225772182999999
85.73795405 88.59579862 1.4924759045000002
85.93088238 89.80406225 0.8363363799
86.24793737 88.30875305 2.6683204107000003
84.41962452 90.03666938 3.9664150218
84.57596154 91.1255002 2.9346827881
86.10532728 87.7080113 1.5308819946
83.08539841 88.86527867 6.5645420925
77.77073234 86.04117781 13.208759949000001
81.47104231 85.01656947 9.502004365
83.6782023 88.51651403 6.001382507400001
84.14224833 89.29583131000001 5.1715911366
83.20990055 89.57337437999999 7.326763962
75.62778440000001 85.68097055 8.945207579
60.709098729999994 91.37260615000001 -0.28472523261
62.84612194 88.3976653 -0.54261736221
62.75420561199999 87.13421227 -0.55705389243
74.75347369 88.71835021 8.586596885999999
78.33266112 86.67749909 9.311434069
77.82472222 85.55950375 11.710352821999999
77.87950485 85.61318073000001 9.999950513
72.0877752 87.95330229 18.800532261
78.90180794999999 87.76049911999999 13.427015581
77.57346478 86.18374618 14.151392507
71.50102106 89.33335096 17.865430750999998
70.81354707 87.95750586 16.624810734
81.20872823 87.11799236 15.152729676
76.83721632999999 85.92284022 17.87383668
70.80849853 84.75875107 25.541402025999997
73.13402740000001 84.93977785999999 20.877493546
72.9771063 87.07689494 10.12109462
77.2894129 85.60490904000001 14.743132516000001
72.68012017 86.38454972 19.389371204
73.84661885999999 86.70219929 9.587579407
71.89993706 86.74920051000001 15.365372225
73.24530332 84.25843713 18.613715099
72.83182592 84.88017622 16.914389653
74.32606068999999 87.48349848000001 9.331607257
72.10271208 86.42491697 8.322050611
73.51262422 87.53425478 8.890717661
74.28513022 88.00863771 7.505735195
68.44546049600001 88.09371144 23.342276363
69.201694429 87.38157897 23.189381509
64.06331435 89.19755221999999 -1.3258252524999998
68.61886233300001 89.425987 14.468344485
68.741695582 88.77987118 13.272702135000001
71.6298625 89.51378317 21.276869809999997
62.60358468 91.34757219 -0.40553492728
58.812782168000005 88.21454193999999 -0.54453667254
72.57147282000001 86.77314968 20.528374237
71.21167032000001 90.17044456 22.263792901000002
72.30949249999999 87.2277245 23.274225744000002
78.4624204 88.16063550000001 19.950133
79.03870198 87.79498336 21.193423307
79.89544717 89.9370864 12.755897083999999
79.47258207 88.76404761 15.135749615
78.20790859 86.87910588 14.077271152
77.60567514 86.53148861000001 15.016962212
78.45491024 86.82789059 12.573168797
67.35769361300001 91.45076423 15.009766261
67.666445672 89.81535885000001 13.204651509
75.09806605 87.99735161 9.08621196
79.28286639 89.04531447 11.800664106000001
75.60199948 87.96755072 8.428862134000001
78.55041474000001 86.94009485000001 10.934447034
62.049249563 95.28819769 -0.52738670495
65.599481017 89.69882579 12.373294871
67.757861318 90.44974001000001 14.580600895
69.649676978 91.51455908 17.59387497
67.923836407 92.75420903 17.627587355
61.249247941 93.20568593 -0.22733447261
60.29537096800001 92.44629142 -0.28539253981
62.564489988 92.79872777000001 15.594475904
62.391964347999995 91.32407158 13.813352028
60.47761813100001 91.28415289 15.059458652
61.133799699 90.30683788 14.085971753
60.04119291799999 89.93841115 14.885869061000001
57.932166012 90.64767509 17.736610213
59.502086791 90.6990364 15.908234755
62.771479043 89.33711647000001 12.905141151
66.73885435 93.16237721 16.928452996
64.15498033 93.15347972 15.775451811
59.315208344000006 91.07446221999999 17.238935266000002
60.391334444 92.03394053 16.359763776999998
59.5405139 91.89362525 19.266101162000002
57.002113014 93.39811355 -0.46263270781
62.236586958000004 92.44656267 14.580496587999999
61.30711808900001 92.30962692000001 15.375574865
55.848173052 99.43758545 -0.31144703968
59.635100511 91.38944149999999 20.036896502
56.430551408 88.42729924 -0.52630357094
61.852941661 93.68478357 17.411629109
63.814894108000004 92.58913097 14.030312933
62.081705035 99.63789878 -0.39289078556
65.67650213600001 93.16598627 15.750188376999999
66.65319651200001 92.10865650000001 14.319538513000001
65.832792221 92.76701804999999 14.560177366000001
65.401337295 93.68074688 16.805244239
64.953980595 92.99177083000001 14.913823644999999
63.097838314 94.10077480999999 17.633304745
64.197538048 93.93758479 18.928081542999998
64.16345015499999 93.88622341 17.1253033
65.272662791 94.34901777 18.665788323
63.08423653 94.36635376000001 18.477887659
65.521708875 93.99249257999999 19.503758106
62.896022945 93.5068652 16.618136318
66.314987837 93.27169208000001 19.919655469
61.605439335999996 94.13920194 18.336112053
64.180890473 94.33039874999999 18.058214335
63.367620855 93.08818281 21.205335297999998
66.924314198 94.11102833999999 19.925079496
67.945866289 107.9265565 -0.18091383100000002
66.334389149 94.21461672 19.026548415
70.17989607999999 91.79215429999999 20.666521232
70.20981162999999 92.18623043000001 19.413551129
65.225056561 94.18602585 17.783091214
65.99655598199999 94.32430713999999 18.28324869
60.602454094 104.09197064 -0.14013026958
66.294501721 93.96163819 17.649472505
69.069264831 92.34525860000001 19.393294494
70.27623505 91.88268334 18.535944259
69.322608411 92.25243481999999 18.885000980999997
68.065987528 93.40352714 19.780445846
69.210998717 91.23608766999999 21.486842076000002
74.71366973 106.78045007 0.09998769382
67.242370545 94.16055383 19.201139363
64.603588728 92.63198077 22.166765481
67.209784684 92.38537553 21.409987844
62.344561517 122.48273492 0.34547019171000004
66.250525418 92.73071885 20.838170682
67.218171062 93.09134331 20.540329257
65.373257551 92.07588284999999 22.504056246
68.35028976299999 91.82929847 20.327457227
68.695716558 90.72624001 22.337747362
68.109546603 91.24638292 21.618833579
70.48856465 90.53386447 22.676081211
70.33715101 89.50120360999999 20.900734701
71.68539616 89.40093218000001 22.4216111
71.87369315 88.49642424 21.497314608
71.90682142 89.15359677000001 18.79938487
71.90748901 88.93312064000001 20.585682432000002
70.81179469 90.72165039000001 19.150819814
70.78467459 90.92921319999999 18.11937932
79.79789825 89.92662426999999 11.396282352
80.92417571 90.04230199999999 13.132053053
79.20526117 88.79655000999999 14.120143093000001
81.65520874 88.13334851999998 13.133575952
81.46495077 86.73371077 14.271367712
81.06048552 87.82182184999999 14.238324205000001
81.8993315 87.36762258 12.574754282999999
78.50902528 88.4580389 15.690647994
77.69554702 88.1328896 16.232299244
79.80999796 89.11971747 18.04571692
79.15707079 89.2298043 16.063424384
78.06383816 88.21881859000001 17.422621880999998
77.6791498 86.93565131999999 16.073582693
78.36462109 87.1217683 22.358942774
78.23895065 88.23748976 18.698310295
77.00865718 86.9066954 20.718235895
80.27129026 88.00546678 19.699751771
79.47550268 88.61289472 19.085543792
80.41289893 88.72126046 17.395418327
79.83749361 89.67595098 14.67266325
79.57689019 89.57779705 16.891818678
78.90510411 89.01311454 17.837872542
80.68747967 90.56326895000001 11.965116302999999
80.22944181 88.23986801 18.49753801
80.40292708 87.03202157999999 19.924847411000002
79.56645935 88.28916404 20.300983822
77.72270891000001 87.78953848 21.079894339
77.11964099 87.12852742999999 22.222007066
77.59570329 86.8680701 23.166558891
71.1573884 88.94083947 23.892397431
77.5105044 86.74326542 24.000731853
81.8168029 87.24345413 16.134185717999998
77.50249353 87.47371437 19.596631453
81.68650119 86.91486272 17.082179709
81.69509621 87.1435061 13.471887632
81.54205528 85.66136061 18.393729256
80.64108339 84.59314108 21.464018149
81.1983809 86.59666029 18.08487289
76.89149825 86.51915937 19.698144123
77.07578984 86.59832923 18.71639602
81.00011199000001 83.7176725 16.746307536
80.73717204 85.94755085 20.047993588
76.68509331 85.87574513 20.401619
80.94641415000001 86.29272729 19.069666791
80.41269033 85.75037716 21.090803671
81.06553406 84.89962964 20.286838341
76.38318387000001 85.24534851 21.447704362
81.78571912 85.77331455 17.454267663
81.33840414 84.74270847 17.978582902
78.38435619 85.36015005 25.906879453
81.35017009 85.24786235 19.186763092
80.71172088 82.97418507 15.807930754
81.82861057 84.80174689 16.478903217
81.64711443 86.37987672999999 12.667233866
78.81544083 87.8644109 14.716138877999999
76.73036308 85.47626584 19.135547802
77.23450511 86.71168086 17.774848266
77.22036091 85.91955456 15.848026796
77.64122338 87.31652202 17.087186501
76.85206977 86.7920816 23.356462268999998
78.97311303 85.09453981 24.431837353000002
76.40738336000001 86.11263934 22.341565043000003
76.36837215 85.98548770000001 23.279795798000002
76.78635566 86.53715252 24.519184977
70.93938439 89.96954708 23.216772824
73.24501128 84.43933876 23.202292246
75.75591653000001 85.27526406 23.831210283999997
76.47301403 83.39504747000001 21.647828629
75.50795525 84.77400091999999 26.002151889
75.90916606 85.78183649 25.239390883000002
76.9026384 85.33745262000001 27.795857936
77.09619253000001 86.05628164 25.773740559
78.01977841 86.24607026 24.821657685999998
76.03809086999999 84.99310015 28.128705171
76.63819639 84.65253412 28.868601846
69.387279451 90.09014812000001 22.720412162000002
76.78915111 82.92747589 29.439355057
77.19732972 83.83446631 29.368196053000002
75.25970192999999 84.47860029 27.855415273
75.08108467999999 84.05663224 28.862614556999997
70.27731983999999 88.01059869000001 23.451299221
70.01896951 87.11223451 24.075479057
67.25021451399999 87.79927044 23.783833535
75.0003919 83.62114579 25.948433203
75.22669882 84.38154158 26.754213500000002
71.82859033 84.06327664 25.873477385
71.97787611 86.01347356 25.015754253
71.88817111 87.12121544 24.559677393999998
70.85447761 86.73009128 24.751416592
68.256662789 87.18912006000001 23.53368178
65.19134416899999 86.93620410999999 23.838908226
64.697382596 87.89257407 23.723772911999998
64.88054767599999 85.66330073 24.166164547
67.26097911400001 90.02298417 23.097798976
65.201316026 88.95128074 23.722375187
66.129319368 85.01746652 25.294090059
62.16106787099999 89.01981115999999 23.062897472999996
62.912169844999994 87.81007676 22.965974359999997
57.772412894000006 84.81374237 25.167728586000003
64.767811444 84.78480723999999 25.457308814
60.045448694 86.86133176 23.892501744999997
63.168225435000004 86.35159883 24.369502815
63.654426486 83.41027646 25.697739053000003
63.599602135999994 84.79395511999999 25.251091642
66.550771147 83.76134634 25.879756735
65.299866352 84.01038197999999 26.085097717
69.012771548 85.08135524 25.305918603000002
66.486679021 89.14738 23.570064455
67.82403439000001 86.59009933 24.238429222
67.59860366699999 85.62186955 25.007555636
66.34444445300001 86.67239847 24.608681349
65.944401922 91.2175208 23.151580242
64.177260546 88.79376499 23.979432133999996
60.83310023 87.58008776999999 23.927298934
67.77634472 89.03132679000001 23.547721652
69.36003417 88.24375868 22.837508470000003
70.06482336 89.26047087999999 23.149953036
68.846420944 89.11783993 23.083383589
67.730908098 90.74822813 22.541231663999998
66.30439013099999 92.36333518999999 21.947509794000002
69.651596245 90.84962607 22.251922637000003
64.177594334 92.25603345 22.925043848
64.824721962 91.37981384 23.457536843999996
66.43786281300001 91.91634354 22.755939513999998
65.168479831 92.91825445 20.022960937
63.316134364 93.43340097000001 19.894392042
63.80012408 92.9213628 20.204623978
65.29127136 92.48776439 21.434479395
63.723478469 89.60545958 24.408826974
64.467111975 89.66025264000001 23.85434583
66.88805669700001 91.04034303 22.910232099999998
65.3595306 90.18697737000001 23.543799671
63.54665532599999 91.51208696 23.724461348
64.165619763 90.52377788999999 24.091333896000002
62.85601035 90.19609389 23.908878119
62.265167383999994 91.35783615000001 23.423594978
56.204995511 85.57504564 20.649663734
63.292685897000005 88.90018018 23.675561693
59.473506357999995 90.50078842 22.33086303
60.753742602 90.89289307 21.671717802
58.608129622 89.77093398000001 23.155084995
62.318114193999996 93.08772382 21.766742508
58.107116816 88.79274278 23.653615265
61.54635921 92.50728039 20.271297732
61.85619607299999 92.19812154 22.672284397000002
61.678037792 90.20215421 23.104808482000003
61.398366841000005 91.10289664 22.511316093
61.084357649 93.27941091 20.083919912
60.810235885 91.29533469 20.433642901
61.349425466 91.82482365 21.514567172
62.904784831 92.46558845999999 23.001188784000004
64.251486215 92.7253887 21.246703898
62.993655354 94.16912792 19.497103241
59.799031166000006 92.27681162 17.843275702
62.919179351000004 92.84507183000001 20.130189695
60.660073908 92.065911 19.807481204
61.625174436 94.48323101 20.00525072
62.083963305 94.67211215 19.030762464
60.391918573 93.02569177999999 19.798573291
60.537324098999996 94.2291364 20.087111744
60.748402029000005 93.01209001 17.081784643000002
60.961649567 94.45238712 19.165966659
58.70421305000001 92.05573055 19.928436913
57.685998825 90.62587470999999 22.486490754000002
57.81847015 91.83661045999999 20.08840386
45.759788158 103.65366788 -0.19966945109999998
53.358713534 104.93685601000001 -0.1986677875
53.693334016 103.89044729 -0.051405816336000006
60.786161568999994 93.53577940000001 18.080327656999998
58.563480528 91.70197995 18.060403501
60.410026460000005 93.30889882999999 19.105572255
57.743410018 91.3434312 18.786096013999998
58.605871352 91.11088665 21.590420047000002
58.189264685999994 92.24496631000001 19.100105206
57.44392573499999 89.70767113 19.513269699
44.005283714 100.91090646 -0.19729187772
57.153198123 89.26052302999999 20.578547752
56.680390242 88.07487339 18.828674592
57.627711442 90.61582985000001 20.292096769
56.948921085 87.69912424 24.224097282
57.420894503 89.70263302000001 23.422948269
59.853730348999996 89.59671854 23.120037465000003
33.680406214 117.66090392000001 0.13332713863
60.745898633 90.22191017 22.569561749000002
59.704110774 87.44231762 23.547137529999997
62.032143026 87.16747613000001 24.154127389000003
59.027197957000006 87.12511661 23.946804553
58.932653066 87.95720339 23.589841275
61.14439740500001 88.51219565999999 23.593116554
57.083353397 88.49024919 19.67793051
56.649056079000005 87.31789884999999 19.620455428
55.921235678 84.52689497 20.625985785999998
56.725034121 87.97482106 20.636918582
56.953927877000005 88.99599758 18.966569937
57.560124993 87.80388085 17.740949429
55.976101755 85.55595727000001 18.62028651
56.982132795 88.84665964999999 18.333085813
48.192712666 95.27486710000001 -0.42900331901
56.35469854 87.40867821 21.701466479
58.382740618999996 86.5861878 24.562952666
56.377354264000004 86.73450352 18.353132532
59.409085659 86.21686402 24.245668201999997
56.321653724 86.11707237 19.586555289
56.692615153999995 85.61775985 17.439789696
55.748584863999994 85.49273606999999 22.791571173
56.423750523 86.73209398 20.641277356
60.510120538 84.79829428000001 24.743257091
61.978528647000005 86.16454301 24.691981825000003
61.299733075000006 85.46902686 24.784357101
57.59972036 85.91370284 24.977035076000003
60.364256057 85.92684569000001 24.541548640000002
55.993667247 86.79283262999999 22.828788311
59.577355536999995 84.35313852 24.688766522
56.339177489 86.30039397 24.701515587
56.260070202 87.35794277 24.045980721
36.09889969 90.55764676 -0.43121575146999996
57.208606601999996 86.99422032 24.585378916
55.862739681 86.15389314 23.977554587000004
56.211170554 88.17632348 22.903431208
36.032935232 93.02698524 -0.43271721808
37.238904087 88.43810556 -0.42581312011
37.933468447 89.88934457999999 -0.45902446142
38.424592836 86.21573744 -0.28468473173
37.119074909 89.62690534 -0.45464360158
43.862465024 87.07809446 -0.5467065261
43.031671640999996 89.24913255999999 -0.59959025819
44.591286775 90.04739226 -0.43451201052
43.45086515 90.11753947 -0.54925091102
39.80199993 90.53710848 -0.47934352186
37.090411036 94.89015787999999 -0.42574898688
39.491578938 98.66868851 -0.47589943863
40.577551721 97.94662598 -0.51937522952
35.194214433 98.08239343 -0.37326036251
35.65241918 94.00545804999999 -0.28201258974
37.226762621999995 92.91919322000001 -0.5317682167700001
32.801177353 96.05692775000001 -0.33097433628
38.062059504000004 89.04840203 -0.35398637995000004
29.026307911999996 89.86375776 -0.42189076775999995
33.617367595000005 93.00422516 -0.31295062505
32.111241666 93.94753578 -0.37966585951000004
33.908303828 94.21485661 -0.41903170638
36.017664522000004 94.90822404 -0.29094116177
43.50051321 97.85361439 -0.44665164313
38.590398434 92.90611295000001 -0.57271958793
37.564009056 87.06138433999999 -0.35644854070000004
36.134614796 89.12459913000001 -0.51714511352
38.976049049 86.93907263999999 -0.27189639225
36.184682695 87.77325599000001 -0.42437379019000004
36.185684052 86.26421986 -0.51530998316
34.045573324 95.65460086 -0.42353745084000005
35.073175284 87.16017457000001 -0.39973637319
34.937115759 88.57744035 -0.55350709008
35.251375284999995 89.77952900000001 -0.46463627952000003
33.619912711 88.84883973 -0.5839232588000001
34.833433481 90.82973451999999 -0.45364191754
34.385576099 86.78412288 -0.45481114651000004
24.8730503 88.01413474 -0.52054584379
23.853959885 88.21664901 -0.42746122923
23.088838906 87.76614217000001 -0.41260783326
31.154318902 88.57608438 -0.39769160795
28.163846585 88.07384075 -0.42038917892999994
25.694497675 87.18904705 -0.3387995646
23.297079652 90.06830602 -0.43586801622000004
26.113107055 88.17919194000001 -0.4979318008
26.808925717 89.23576025000001 -0.7032308143000001
27.688326687 90.14988541999999 -0.63511736225
28.799041362000004 92.96175090999999 -0.48889757602
24.970098587 98.55524301 -0.3950189159
28.972610086000003 95.82301672999999 -0.41540137611
26.319428533999996 91.66950883999999 -0.55578027386
26.602145283 96.89593018000001 -0.18143799968000002
25.358124819999997 93.44360235 -0.5327277700499999
27.070113273000004 97.78137061000001 -0.01118606888
26.307078448000002 96.0354507 -0.43246614516000004
25.525768849000002 96.55253741 -0.23428057905
23.850955814 95.08236647 -0.60509634206
24.178942291 89.1734466 -0.47214658701
25.403269381 90.96163216 -0.46232035381
24.437793345 91.53809097999999 -0.41606996675999997
24.416556206 90.38044813 -0.52736702494
24.346252531999998 92.70379692 -0.38300404554999995
25.372686234 92.1793565 -0.35438201735999997
26.346632095 92.80624836 -0.51948075998
25.373771045 95.07288482999999 -0.43054712008
27.66312584 94.46539431 -0.40150785934000005
24.346544592999997 96.23326062 -0.29838843622
25.189103933 100.74554678999999 0.13163331314
24.26038608 93.92711223 -0.57670391401
22.007831187999997 96.18586299 -0.22702081479
23.294492809 93.22630765 -0.42491488858000004
22.221162173 92.75339542 -0.42512362704
23.280682418 94.20841038 -0.56322726306
23.318358511000003 91.98788850999999 -0.42195286371
22.411920874 88.28651461 -0.51950272171
22.262760254 90.56869297 -0.5343556288
22.97314033 91.06037024000001 -0.43157027683000004
23.702963444999998 91.01671726 -0.51923086866
22.170092909999997 89.34041263 -0.67141683539
23.18425998 88.81514817 -0.43092409612
24.912729114 86.61194143 -0.46876761477
30.75231537 95.72173359 -0.38279469592
