# .PCD v0.7 - Point Cloud Data file format
VERSION 0.7
FIELDS x y z
SIZE 4 4 4
TYPE F F F
COUNT 1 1 1
WIDTH 1209
HEIGHT 1
VIEWPOINT 0 0 0 1 0 0 0
POINTS 1209
DATA ascii
-63.052884 21.652632 539.544384
-59.1958656 22.0133808 536.48748
-59.300892 20.460528 532.056168
-62.280612000000005 21.8899152 537.716808
-59.827859999999994 21.053109600000003 535.30668
-59.078628 20.8940184 534.282048
-59.4144576 22.5148896 535.241016
-59.76003600000001 19.7244 534.768552
-62.58130560000001 20.3937552 541.4410799999999
-60.560834400000005 20.6278128 541.517328
-61.533756 19.106388 536.565384
-63.7054848 19.980993599999998 541.6236719999999
-60.8026536 21.8357928 539.41788
-64.9876104 18.573487200000002 541.19808
-63.961236 20.547900000000002 538.289712
-65.1416832 18.8023464 540.205488
-64.7792928 19.7221176 540.5824799999999
-62.454348 21.9765744 538.864416
-64.12533119999999 21.3259176 539.132328
-61.6224888 21.881664 538.841664
-59.8070304 21.557916000000002 537.544224
-63.311248799999994 21.6224568 538.382808
-61.220231999999996 21.6522432 536.9338799999999
-59.8843656 21.192912 540.845496
-58.734518400000006 25.1266896 531.71604
-60.158196000000004 22.529339999999998 531.972792
-60.470265600000005 21.8075544 536.04972
-62.105983200000004 38.6020008 514.581048
-65.7594792 38.3208768 514.491048
-63.027799200000004 37.5332472 516.324384
-64.4034744 36.21078 517.647168
-64.6155576 36.9986184 516.695544
-62.809848 39.7610424 512.7192
-62.839476 40.5506016 511.994664
-63.2625336 38.404044 515.120544
-63.9931392 38.6823816 514.240632
-60.98332320000001 38.701223999999996 514.568304
-61.6861296 39.7051704 513.296856
-61.66526400000001 38.9821464 513.951408
-59.33682 40.1464152 512.890056
-58.402368 40.3434144 512.495928
-64.1670768 39.2034384 513.21492
-62.8130016 38.8715616 513.76788
-64.8942408 38.7949248 514.129752
-67.43696399999999 36.1622664 517.175064
-66.82826159999999 38.4928632 513.9702
-65.3263632 36.1890288 517.338072
-64.6124688 40.4635824 511.268328
-62.41208399999999 41.1987744 511.32304800000003
-63.80719199999999 40.0157064 512.094672
-58.7114928 39.6839808 513.43272
-61.681968000000005 40.7092608 512.251992
-66.50233920000001 40.908996 510.711408
-64.1468232 41.1356592 510.13526399999995
-65.2296096 41.6774808 509.373
-59.0166504 42.290812800000005 509.869728
-63.4776912 40.769956799999996 511.24730400000004
-66.1404816 41.525424 509.853096
-65.76451200000001 40.260340799999994 511.38936
-66.8831112 39.160584 513.089928
-62.4725208 35.4659256 519.079176
-63.3675816 36.570672 517.374648
-67.4381592 35.504942400000004 518.023152
-66.3222456 35.7690024 517.5946799999999
-63.6395904 35.6791824 518.459832
-65.679732 34.7415552 519.318144
-65.0222208 34.377544799999995 520.307712
-66.847464 34.6099968 519.425352
-66.2422392 34.219692 520.2501120000001
-64.4202432 32.9312304 522.537984
-64.320336 33.738479999999996 521.370576
-65.224728 33.1877592 521.899128
-66.62782080000001 32.6254032 522.872136
-61.971588 34.27416 520.909632
-63.7651944 34.575012 520.331472
-65.6483688 33.750705599999996 521.14752
-61.852932 33.6196368 521.8688159999999
-62.940384 34.0924032 521.174808
-61.0624944 34.269408 521.088336
-61.4929536 35.164584 519.601392
-60.623906399999996 34.8357384 520.244424
-62.4948768 34.827444 520.171632
-60.685819200000005 33.8835312 521.9457120000001
-60.864948000000005 33.166764 522.785304
-58.516351199999995 33.092726400000004 523.407096
-57.4981272 34.2563184 521.766792
-59.7964896 34.4500272 521.313264
-60.898968 32.479668000000004 523.748304
-62.120174399999996 32.6399832 523.19304
-57.4104528 35.8984296 519.1179119999999
-58.3168104 31.887626400000002 525.288888
-58.5242496 34.0092216 522.143928
-55.0507608 34.9441992 521.041608
-53.1401976 35.98236 519.8136480000001
-60.1242552 38.244974400000004 515.389536
-61.65576 32.055012 524.3811840000001
-60.7523904 31.9778928 524.46816
-57.3226488 32.9284584 523.838736
-57.408796800000005 36.4035456 518.269752
-55.6129368 32.281344 524.7115200000001
-61.052313600000005 36.9936144 517.2072479999999
-59.5361592 35.189064 520.019064
-59.5323576 36.0323784 518.875416
-59.534316 38.9155536 514.259352
-58.455648 35.6353704 519.612264
-60.4047168 40.187484000000005 512.8020720000001
-59.75154 39.6050544 513.387144
-61.7069304 38.16792 515.581272
-59.3374392 40.6036872 512.069472
-59.1581232 37.6919496 516.37104
-59.3047872 41.230195200000004 511.275024
-60.980025600000005 41.8486392 509.778936
-61.214097599999995 41.3687232 511.014384
-60.297156 41.0055984 511.685136
-58.298738400000005 41.0334552 511.40376
-58.75937999999999 41.788929599999996 510.63739200000003
-54.725968800000004 40.3902936 513.427032
-57.7734912 37.6802352 516.3276960000001
-60.5822688 37.6346448 516.3827759999999
-59.6496888 36.99774 517.577184
-56.1099744 35.1483696 520.562808
-56.26927439999999 35.662104 519.622992
-53.1467856 36.5174064 519.010632
-54.126648 35.987076 519.551496
-50.601621599999994 37.513908 518.186232
-51.14872079999999 36.594215999999996 518.943168
-54.725076 37.1894256 517.820328
-56.4081336 36.1476648 518.681808
-56.440965600000006 34.15734 521.90892
-56.953015199999996 34.7940144 521.1483840000001
-55.106056800000005 35.510796 520.084872
-52.76561039999999 34.8469344 521.3180160000001
-52.378459199999995 35.5341744 520.3341360000001
-55.2703968 36.066448799999996 519.157368
-55.7444304 33.6099456 522.727344
-50.63896079999999 39.7180656 514.917
-57.1850856 33.558012 522.7758719999999
-56.24454240000001 32.9436792 523.703016
-56.328156 31.7225592 525.597336
-55.2842784 34.2661176 521.860464
-59.863392 32.7543552 523.479168
-55.8038952 37.108944 517.647312
-63.2694528 14.7832416 528.618168
-48.0897864 31.9266432 526.433112
-56.789560800000004 32.44518 524.680416
-51.271394400000005 32.7136464 525.1547519999999
-53.486661600000005 32.8520592 524.2393440000001
-53.603935199999995 33.430212000000004 523.14552
-52.72614 33.8140008 522.682272
-52.57424160000001 33.3427248 523.642752
-54.4985352 33.7731624 522.542448
-53.0123904 34.3309536 522.058248
-49.8073392 32.1462648 526.242384
-52.0248888 34.4249784 522.177336
-51.680066399999994 33.8179104 523.129608
-53.5617648 33.962839200000005 522.4011840000001
-51.289221600000005 35.116437600000005 521.234568
-46.863302399999995 34.283952 522.7800480000001
-49.475232 33.9272064 523.438488
-47.2689072 33.5921328 523.997496
-49.1602176 34.5286152 522.474696
-50.0020776 32.628312 525.3623279999999
-48.508113599999994 33.471050399999996 524.182968
-52.3601352 32.7527064 524.681496
-51.91056 31.624271999999998 526.51764
-48.238228799999995 34.015392 523.1695679999999
-49.6514664 33.2827488 524.388744
-47.690395200000005 33.0323832 524.964384
-48.803385600000006 32.9199264 525.093912
-50.601549600000006 34.3776528 522.547416
-48.574908 35.036604000000004 521.636616
-48.064708800000005 34.546255200000004 522.321048
-47.3768928 34.9354296 521.6958
-46.8919512 35.5683096 521.129592
-49.078360800000006 35.592559200000004 520.857
-47.888899200000004 35.4935952 520.919352
-50.1935688 35.532288 520.704792
-49.8465792 35.0215128 521.580816
-46.163721599999995 39.305592 515.772288
-50.9972616 35.9277912 519.9132960000001
-48.3475824 36.1122912 520.13664
-50.08240800000001 36.780487199999996 519.14556
-53.2344168 37.2468456 517.940568
-49.3484976 39.4182576 515.271384
-48.820104 36.7878096 519.308712
-62.647171199999995 14.799672 530.365392
-51.811538399999996 39.6790488 514.782072
-43.7891256 39.1015872 517.0103280000001
-42.929978399999996 39.2440896 516.9483359999999
-46.3004856 41.5339776 512.245584
-48.6817848 38.500999199999995 516.977568
-48.4097328 38.9297952 516.118104
-48.0399408 39.5891352 515.1607200000001
-48.188232000000006 41.5708416 511.63257600000003
-49.142052 41.409216 511.69600799999995
-48.2746464 41.0535288 512.3925360000001
-54.082072800000006 41.6926512 511.271496
-51.225487199999996 40.3448328 513.761544
-51.0702984 41.4153216 511.58786399999997
-52.046128800000005 41.3132616 511.776864
-51.15636 40.847572799999995 512.44272
-52.888060800000005 41.8299336 511.09502399999997
-50.254250400000004 41.970146400000004 510.981696
-53.481528 43.489224 508.653864
-52.296429599999996 40.7117592 512.785152
-52.554175199999996 43.2404136 509.235048
-45.69462 40.0032216 514.6888319999999
-46.6459488 40.2247224 514.05336
-47.6383824 40.143261599999995 514.161648
-45.4173336 38.9766888 516.466944
-48.4157736 38.1445776 517.83408
-50.5379376 38.235117599999995 516.950208
-51.7609368 37.6728192 517.426632
-49.2452712 37.553306400000004 518.49648
-43.168809599999996 38.633292 517.8384
-47.31533279999999 38.0117016 517.948056
-46.3577544 36.854064 519.859512
-46.929312 37.481234400000005 518.945616
-49.467564 38.1116952 517.479048
-55.4830272 36.5690016 518.279544
-51.660633600000004 38.3975712 516.1846320000001
-52.8803136 38.569737599999996 515.794176
-51.976814399999995 36.9311688 518.477544
-51.3122112 39.1857192 515.448216
-52.128612000000004 39.0715776 515.490768
-53.937043200000005 38.764108799999995 515.142648
-53.5474368 39.4608384 514.4307120000001
-51.23883599999999 42.9073128 509.954688
-54.6894936 38.4947928 515.697048
-54.3000816 36.578793600000004 518.6477520000001
-54.180957600000006 37.8547128 517.107744
-56.0373984 38.1054672 515.9924639999999
-57.257308800000004 40.6695024 511.998768
-56.3099688 38.806344 515.187144
-55.5756192 37.6535448 516.951864
-56.635351199999995 36.7527096 517.890024
-56.7467928 37.332223199999994 517.104288
-57.2304384 38.2698 515.610936
-52.705728 40.068914400000004 513.957384
-56.0304 39.8079144 514.1480399999999
-53.7882336 39.9733776 513.791784
-52.838791199999996 39.1888224 514.9172159999999
-54.5508 39.5262576 514.311912
-55.953863999999996 40.6949472 512.608968
-53.203752 41.2260984 512.028648
-56.384063999999995 41.198004 511.552584
-54.465624 41.072616000000004 512.314848
-54.880207199999994 44.9403048 506.250288
-56.2152312 41.8783032 510.74532
-55.3388544 41.4830736 511.461936
-49.1055552 45.860544 506.52612
-58.167309599999996 43.6312872 507.70548
-55.174644 44.3569968 507.42705600000005
-56.8752552 44.2826064 507.47508
-56.4162696 43.0332336 508.98132
-55.3657392 43.047633600000005 509.262912
-52.5841272 43.8982416 508.23288
-57.1647096 42.15312 510.24535199999997
-57.1949712 41.3945568 511.05060000000003
-56.2474008 42.5462904 509.802912
-57.901975199999995 41.7328992 510.61816799999997
-58.1099976 42.3232632 509.924448
-52.8105528 44.5631832 507.27664799999997
-53.94030480000001 44.678217599999996 506.873088
-51.5108592 44.587908 507.69115200000005
-51.442128 43.7679216 508.79044799999997
-52.006536 45.191613600000004 506.622384
-50.8616496 45.347976 506.811456
-49.684104000000005 42.996708 510.069096
-50.4756072 44.2997064 508.294656
-50.292856799999996 43.6875048 509.210928
-50.420613599999996 44.8318872 507.50920800000006
-48.0314736 43.8011424 508.91544
-47.3546664 42.005592 511.35408
-47.386749599999995 45.24336 507.145248
-48.6463536 42.2603712 510.84950399999997
-44.589470399999996 44.4449592 508.74357599999996
-46.7056872 44.0575704 508.83184800000004
-46.0531152 42.537707999999995 510.992712
-46.3425264 43.3714392 509.89356000000004
-49.665672 44.1753408 508.605984
-48.800721599999996 44.305092 508.290984
-47.6902152 44.5474656 508.039488
-48.6321696 45.1124352 507.288744
-49.609224 44.6927832 507.83724000000007
-46.9347912 45.809135999999995 506.34165600000006
-45.028548 46.283594400000005 506.040624
-48.1036752 45.8499888 506.416752
-64.6691616 43.0117992 507.590856
-59.81563439999999 42.398028 509.263344
-62.3170368 43.0457832 507.51331200000004
-58.476650400000004 42.95322 508.948344
-59.6666808 43.1219952 507.914784
-61.114075199999995 43.0575192 507.609936
-60.334430399999995 43.6374 506.693304
-63.0845928 41.6363544 509.533992
-60.905556000000004 42.4984464 508.663368
-61.992086400000005 41.9775336 509.116176
-63.0078336 42.276996000000004 508.31928000000005
-59.9012568 41.660675999999995 510.491304
-63.055663200000005 41.263840800000004 510.526512
-65.4177816 40.9927032 510.46480799999995
-67.65780240000001 42.097694399999995 508.801824
-64.12040640000001 41.822964 508.873752
-65.0799216 42.3816552 508.292352
-58.98672 43.920230399999994 506.7918
-62.8237008 31.9673376 524.307096
-61.0780968 31.617381599999998 525.277656
-61.6438296 30.882347999999997 526.353192
-62.040672 29.892434400000003 527.806224
-59.113137599999995 29.949444 527.573448
-64.3323888 28.9549512 528.95772
-62.705282399999994 30.334744799999996 526.631976
-64.3461264 29.9344392 526.894848
-64.7615592 30.3560856 526.264704
-63.441936000000005 29.924467200000002 527.324112
-63.349869600000005 31.2295896 525.1901760000001
-65.5167024 32.6383488 522.7307999999999
-64.6092792 30.94488 525.238776
-64.3934736 29.458944 527.907024
-63.99455759999999 31.631003999999997 524.253888
-64.9981512 31.600670400000002 524.332512
-66.48335279999999 29.20806 527.68224
-65.8050264 31.2527376 524.8687679999999
-63.351568799999995 29.474711999999997 528.915096
-65.42601839999999 29.906186400000003 527.174208
-65.3761224 28.9201104 528.4931760000001
-63.6973416 30.448116000000002 526.144752
-66.907944 27.5550624 528.929568
-64.82095919999999 28.343419200000003 529.7240879999999
-64.1151576 29.037959999999998 529.904304
-64.3336704 22.9242672 530.126712
-65.5660152 27.5934888 530.947296
-64.761588 28.1538144 530.555616
-60.951311999999994 29.758910399999998 528.604632
-59.4336888 28.6867296 529.632504
-62.1772128 27.9073656 529.427736
-61.8159024 29.5027488 529.740936
-60.461409599999996 29.1771144 529.413912
-58.7487096 26.859146400000004 529.5695039999999
-60.120014399999995 26.401478400000002 530.209512
-65.02325040000001 22.1454792 530.036568
-66.797928 24.086232 530.067024
-62.58222 13.465087200000001 531.3927600000001
-61.409217600000005 26.346528 531.654912
-66.0157416 21.3766848 529.693848
-61.0784784 14.033844 530.618256
-62.7268032 16.5540744 529.438968
-61.1242848 16.1970912 529.754184
-62.27609040000001 17.2913904 529.622352
-63.6551712 17.5821696 529.8562800000001
-64.473192 21.0676032 530.200368
-65.8182168 26.1408888 531.110232
-65.86075439999999 24.885806400000003 530.2181519999999
-65.5063632 23.57784 530.183808
-63.8434584 12.0742056 530.8248960000001
-64.4302728 18.010656 530.6250239999999
-66.2399928 15.930741600000001 530.2242
-64.7664552 14.2090632 528.62292
-64.930284 6.84466848 529.388424
-61.832376000000004 11.145376800000001 529.5276
-57.60486 29.6029872 528.84
-63.4250808 13.144442399999999 529.296912
-61.944076800000005 13.1335776 529.49232
-60.041498399999995 31.7107584 524.951064
-60.4495152 30.1777488 527.252112
-55.1424096 31.433400000000002 525.809376
-56.7976896 30.248625599999997 527.89464
-51.383383200000004 29.3134248 530.193888
-57.134195999999996 28.958565600000004 529.676856
-57.3544512 30.6853056 526.956768
-60.138036 17.8523208 530.87724
-60.0563304 15.6760344 530.120088
-54.33531120000001 32.1637248 524.968056
-55.561939200000005 30.079051200000002 527.801328
-58.04452800000001 30.244773600000002 527.94396
-60.234047999999994 31.056472799999998 525.971592
-58.0619088 31.0915872 526.0842
-58.3244496 30.4642728 526.988952
-57.378131999999994 31.873428 525.43764
-59.192546400000005 30.604197600000003 526.515696
-60.1244784 32.212656 524.196504
-59.1353064 31.3593336 525.510216
-48.119796 32.5537416 525.65328
-53.14533840000001 32.1452064 525.31236
-52.7243616 31.678113600000003 526.1742720000001
-45.3913056 30.4874496 528.906528
-43.943868 31.2840864 527.581944
-49.1351616 31.9133232 526.571712
-50.91011999999999 32.0648544 526.245552
-52.0809912 32.165769600000004 525.69252
-47.654568000000005 31.1823936 527.261976
-56.1077928 30.8734416 526.739184
-52.556853600000004 31.1289408 527.046912
-54.558972000000004 30.032841599999998 527.91588
-51.15222 31.164897600000003 527.322096
-53.5369536 30.431966399999997 527.6737439999999
-50.7452184 30.4365672 528.443784
-56.2813848 29.3980608 528.73488
-43.133529599999996 28.1387088 532.738368
-44.3134584 30.0978216 529.744608
-55.6750512 28.974225599999997 529.920792
-54.11029679999999 29.2208832 529.597296
-54.021153600000005 29.717812799999997 528.512472
-53.0414424 29.8776672 528.878952
-59.9724144 29.3035248 528.18552
-56.69570160000001 28.169474400000002 530.389008
-58.3253784 29.1471984 529.615656
-57.220718399999996 26.491572 531.540648
-61.0470216 18.3023712 530.188488
-59.9332824 25.1063928 532.204992
-62.5305384 23.289876000000003 530.899272
-59.355446400000005 25.512652799999998 530.538192
-60.509606399999996 25.422076800000003 531.239616
-58.0475664 28.356782400000004 530.26236
-54.3069 28.0967472 531.742032
-56.66910479999999 27.5939424 531.709776
-54.694339199999995 28.6971696 530.657136
-51.04355760000001 27.8869032 532.074888
-51.1212672 28.5933168 531.07452
-52.316632799999994 28.543643999999997 530.6882400000001
-57.256372799999994 25.538472 531.913536
-53.5674024 28.4751864 530.557056
-57.7732536 24.9301872 531.616752
-48.3446592 29.160302400000003 530.998992
-47.251663199999996 28.710993600000002 531.9640079999999
-59.5869552 23.812632 532.104192
-61.507677599999994 24.4401768 531.202824
-60.601075200000004 23.535698399999998 531.996696
-60.01822800000001 21.1586688 531.841032
-60.6000528 20.1933792 531.635688
-59.97803759999999 16.1949528 530.784432
-60.9459768 17.3733552 532.331928
-61.7568192 14.0751936 531.48096
-63.5764968 13.1849856 531.5335200000001
-61.877433599999996 20.8896696 530.9352
-61.1352432 21.9239496 531.394848
-63.6404328 18.48438 530.468424
-64.226844 24.9916896 531.405144
-63.0585216 25.758280799999998 531.699624
-64.3985208 24.2824896 530.268192
-62.495553599999994 22.2626448 531.149688
-61.4884392 23.312376 531.68832
-65.131344 25.1007408 531.0201599999999
-63.4245624 19.1980008 530.6792399999999
-65.6247816 10.2528792 531.089496
-67.0580712 15.4559592 530.0862480000001
-63.8399088 19.9901376 530.48952
-63.1285632 21.0257712 530.631936
-62.6208264 18.6927264 530.1691199999999
-66.435984 12.532104 535.3760159999999
-61.5697776 11.9523024 553.7022479999999
-64.6408584 13.1761944 551.875896
-65.9352672 13.026664799999999 551.886552
-63.36499680000001 12.5752104 536.503968
-65.3782032 13.905511200000001 532.941336
-66.2732352 11.4998472 531.894744
-66.39586560000001 12.9705048 532.8556560000001
-63.087588 2.37548592 532.7097120000001
-63.8427096 10.8833976 530.110728
-65.3810256 9.3584232 530.71092
-61.772436 2.93055912 533.835144
-63.3091464 3.44801088 535.060584
-64.321056 10.743048 527.115888
-65.2616064 5.781490559999999 529.130952
-65.65687199999999 -4.301555759999999 529.641072
-65.95578719999999 0.9953856 530.42976
-64.8854352 10.1013336 537.002352
-65.9119464 8.6455944 530.568504
-64.63179360000001 2.09793168 531.7716240000001
-65.3242536 11.0296728 536.56056
-64.676376 5.04187272 534.8124720000001
-66.8880144 2.9007302399999997 531.624096
-66.4281864 4.13420976 533.006856
-64.551312 11.5935192 536.353344
-65.7393768 11.0381616 538.7562
-64.54514160000001 11.487578399999999 537.300504
-64.2034656 13.1446152 537.490728
-62.4724416 -3.5685252000000003 533.121408
-63.2170512 -3.05477136 532.531512
-63.9036144 14.618844000000001 551.357568
-62.030282400000004 4.0858848 538.2628559999999
-62.8155864 5.10568272 538.822656
-61.23366 0.162192024 531.735048
-61.607930399999994 13.169087999999999 552.175416
-64.82844 10.7828424 555.264504
-64.115892 1.1120615999999999 531.2178
-60.4592352 -0.85598928 531.547272
-63.36568080000001 -1.3055796 529.853976
-62.7560928 5.19003792 526.676256
-63.001202400000004 4.45671 525.439152
-61.685028 12.217233600000002 529.797024
-62.63838 9.8730432 528.68664
-64.6771536 9.8539704 530.2612799999999
-64.9353384 8.6814576 530.1964800000001
-64.8857016 11.256192 530.932896
-59.9020776 3.0601936800000002 539.128296
-61.7630184 4.61644344 539.830224
-64.050948 12.298356 535.8774960000001
-62.696764800000004 12.5807616 530.8207199999999
-64.1496816 13.144154400000001 535.8369600000001
-64.9409976 12.695788799999999 531.820872
-57.58805520000001 13.279284 552.948624
-61.968564 4.0840466399999995 542.052864
-60.9710112 3.5708990399999996 538.983432
-59.568552000000004 2.25152136 535.684248
-58.29649199999999 1.31056416 537.192432
-59.6879928 12.378722400000001 553.322592
-60.471108 11.8001232 554.1151679999999
-58.461984 -0.143015256 542.904048
-60.155927999999996 1.1228896800000001 544.0069440000001
-60.0674184 -1.0544378399999998 544.886208
-61.1685864 0.0656232048 544.846536
-61.4625696 -1.28079648 545.275728
-60.4408248 -4.85436528 545.421816
-60.578071200000004 -2.39117256 545.175144
-62.2834992 1.9391241600000002 544.101984
-57.9513888 1.23227568 538.6255199999999
-58.0801752 0.673723728 541.4788080000001
-60.055761600000004 -3.58497792 544.573944
-59.165172000000005 -2.13157008 544.240368
-59.007045600000005 -5.08173768 543.243096
-59.515495200000004 10.0868256 557.05068
-58.927629599999996 0.483621048 543.75444
-58.9852224 -0.74283984 544.062816
-53.3194776 9.7929216 558.2938320000001
-59.442976800000004 -5.71495824 542.6809920000001
-64.6088328 9.380304 557.2736639999999
-57.3666336 -2.01069072 542.4897599999999
-58.8388536 1.8880351199999998 542.756016
-53.1229608 13.5555768 553.1013360000001
-58.070008800000004 1.5935637599999999 540.2124
-59.300496 3.27912552 540.166176
-58.601808000000005 2.64941496 540.755352
-57.4337088 0.590609088 539.85564
-58.335105600000006 1.85361264 541.301688
-56.9179224 -1.42673256 541.335528
-56.9505168 -1.87723872 539.63928
-57.1902192 -0.39050575200000004 540.723024
-56.55672 -0.9881416799999999 538.911864
-56.558484 -2.1201811200000003 540.8670960000001
-56.834568000000004 -1.57399056 538.188984
-57.6310824 -0.74529216 542.0660399999999
-57.529008 -1.5159319199999999 537.233544
-56.805652800000004 -2.89304424 542.182824
-56.6388504 -1.12447944 540.187272
-57.5833392 -4.34805696 538.951464
-56.669536799999996 -1.08963936 536.766912
-44.619012 17.542188 548.529408
-56.6568072 -0.675625896 537.79752
-58.965516 0.0122000544 533.4506640000001
-58.692311999999994 1.1137176 534.184272
-56.8151352 -0.290134944 539.46036
-56.6217144 -0.24253279200000002 538.5250080000001
-48.5387856 12.849789600000001 554.464584
-57.058639199999995 0.433680768 538.624296
-58.5316872 0.47136657600000004 535.16664
-59.094035999999996 1.8627479999999998 534.6253439999999
-58.6794456 1.03904064 535.245984
-57.408544799999994 -0.355054824 535.84776
-59.449392 -1.29433392 533.752488
-45.76268880000001 21.201782400000003 542.593872
-56.6940024 -0.290943648 536.926824
-57.95036639999999 -4.463622 537.318576
-58.2812856 -2.3127191999999996 535.552128
-29.668744800000002 15.0343776 553.806648
-57.9872376 -2.36993832 536.716584
-57.649125600000005 -1.5187464000000002 536.097528
-58.484412000000006 -4.33962072 536.439024
-58.9627008 -0.77976504 535.193424
-59.882796 -2.35496376 533.656872
-59.425163999999995 -2.05388712 534.6036720000001
-60.044536799999996 -1.5972919200000002 531.936216
-61.285571999999995 -0.286202736 533.044296
-61.23029760000001 -0.7742592 531.009648
-62.251847999999995 0.034733304 531.339624
-61.8594192 2.37175416 532.934352
-61.8996096 0.8560166400000001 531.872208
-60.2183232 1.5645311999999998 533.744064
-60.112994400000005 2.43079128 534.3846480000001
-61.8368832 13.2985296 530.676576
-61.53832080000001 12.517739999999998 528.715728
-62.7105384 10.5694488 529.50996
-63.4916304 12.7853928 527.985216
-64.8057888 11.6003376 527.3943840000001
-63.695736 11.481984 527.819328
-64.3332168 13.3327296 528.061896
-62.893922399999994 8.8134336 529.15464
-63.170424 7.8518232 529.502832
-61.972336799999994 7.6629888 526.71564
-62.0654616 8.9488872 528.435792
-62.9589312 7.078595760000001 528.499008
-64.4120568 7.8734088 529.538472
-63.569124 3.02476392 525.282984
-62.807392799999995 6.11410248 527.603832
-63.959529599999996 3.5818920000000003 527.3756639999999
-62.9408664 6.453820080000001 525.2898240000001
-62.3830392 6.550914959999999 526.356936
-62.4475944 8.5298976 526.5655919999999
-61.753283999999994 10.5540768 528.705288
-61.6233528 8.5317048 527.616576
-62.1030024 7.2943272 527.593752
-61.126344 13.400618399999999 529.631064
-62.825796000000004 7.4568816 526.0446000000001
-63.9136512 6.260022719999999 524.988864
-62.5881384 5.5581552 525.547728
-63.0185544 3.7750406400000003 526.614336
-63.5764248 2.40566472 526.4128079999999
-63.7449048 1.8725688 525.441744
-61.548444 -2.3577624 530.563896
-63.786024 1.1124547200000001 525.016512
-64.09078559999999 10.289692800000001 526.034952
-63.4957272 4.86167904 527.651568
-64.3286232 9.3902112 525.568752
-64.4694336 12.441132 527.69412
-65.4752088 8.0989632 524.846088
-66.2496192 4.90286304 523.739592
-64.5501672 8.2346688 525.372624
-64.4620032 4.33495224 528.050016
-64.4828976 5.2733664 528.47568
-67.6352448 8.9949744 526.1538959999999
-65.0106216 6.2617248000000005 524.5704000000001
-65.047392 3.5687505600000002 527.772744
-64.7589528 7.2346608 524.988792
-65.1041424 5.17940064 524.219976
-66.0581784 6.166131119999999 524.091096
-65.5838928 2.46013848 527.375592
-65.4581664 9.0397728 525.198816
-66.4583832 8.2487304 525.206592
-65.0035152 -0.087547536 523.079136
-65.816028 7.285802400000001 524.517696
-68.4934776 9.5482224 526.903344
-66.5536392 9.8000784 525.677256
-65.3343984 13.022424 528.161328
-63.60255360000001 9.7606296 529.4330640000001
-65.5876152 4.62279744 528.453864
-64.46464560000001 6.16591584 528.901272
-65.4752592 7.7054256 529.996896
-63.91708559999999 7.0337556 528.998184
-63.8029512 1.26822024 525.952368
-65.4284376 1.4736751200000002 523.432944
-64.603584 1.79886384 526.882248
-64.636308 0.9785498400000001 526.356864
-63.9431208 0.23308934399999998 525.310128
-60.565881600000004 -1.83254832 531.205416
-66.2265576 -0.930546 528.942024
-65.3058504 0.09461664 526.506984
-67.45657680000001 2.1880418400000003 527.072256
-65.59344 -1.9141236 525.4118639999999
-64.6412904 -0.95234328 525.581496
-64.8306432 -2.54706192 523.21752
-64.3049712 -0.676675512 524.284056
-64.2095928 0.682433496 524.075976
-65.14847999999999 -3.3654031200000003 523.7301600000001
-65.4201792 -3.66057792 522.769968
-60.4939968 -2.32185384 532.8116640000001
-67.1262192 -4.19666616 522.205056
-66.2054616 -3.8191032 521.956944
-65.703348 -3.63925512 524.515752
-66.0306024 -4.62481992 524.049984
-62.5461624 -2.58632424 531.508968
-63.4006872 -3.33835344 531.306792
-62.7279048 -4.6688184 533.851776
-66.7787616 -2.26657872 525.802464
-65.9169792 -2.7438984 525.184128
-66.3340968 -4.03727472 528.545232
-64.4274648 -3.06436032 529.039008
-63.3412368 -2.64075336 529.448184
-63.7215696 -3.4445707199999998 530.183376
-63.378252 -3.9172809600000003 533.11428
-63.605376 -6.00297768 535.502808
-62.638660800000004 -6.116526 536.043528
-64.8740016 -6.568908479999999 535.496832
-60.523552800000004 -3.89826936 534.377736
-61.5554064 -5.72805432 535.682808
-65.417796 -6.83263656 533.744208
-61.55373600000001 -6.96295512 538.6356000000001
-62.801748 -6.54146496 537.9876
-65.6393832 -11.6740368 540.847584
-65.638944 -7.7924376 534.7817279999999
-63.67643279999999 -9.089992800000001 539.80272
-64.1485296 -7.690960799999999 536.861232
-67.0205664 -8.7677136 535.496904
-65.6509896 -8.3079504 535.887576
-66.6424152 -7.1817746399999995 532.970568
-66.3662592 -8.0706744 533.918808
-65.351196 -5.1360854400000004 531.311544
-61.3705536 -4.82539032 534.7008
-63.9180792 -4.8142008 533.029464
-64.829052 -5.6742681600000004 532.71036
-63.795427200000006 -5.99043888 534.0637439999999
-59.2955784 -4.61848464 535.5266399999999
-61.6899168 -6.561018 536.385384
-62.93730240000001 -8.5933872 539.1614880000001
-61.4916216 -4.055744160000001 533.620368
-62.371288799999995 -2.59311528 532.6560000000001
-61.2984312 -2.3527656 531.939312
-61.451294399999995 -3.0278577600000003 532.996488
-59.839171199999996 -3.0928240799999998 534.351672
-58.24802880000001 -3.29933232 535.99824
-59.765436 -1.7086161599999998 532.9091520000001
-58.2563592 -5.38254792 537.210072
-59.0977368 -5.521687200000001 536.300136
-58.6215288 -3.93630264 535.384656
-57.8799648 -2.30893776 538.11792
-57.3661512 -3.2501253599999997 539.784792
-57.857918399999996 -3.26820168 539.16444
-58.1739624 -3.45636936 537.160392
-60.814713600000005 -7.11964944 536.564016
-60.8162112 -6.211515599999999 536.266152
-59.501944800000004 -3.8745302400000003 534.8625840000001
-60.309431999999994 -5.37992136 535.72788
-58.934664 -6.488173440000001 537.228216
-59.9079456 -6.51460032 536.432544
-60.2622072 -7.16211936 537.623568
-59.1237576 -7.00507872 538.4754
-65.329344 -8.7465888 544.865328
-61.612559999999995 -6.81911784 537.315408
-60.1142184 -7.808832000000001 541.4178959999999
-59.7813912 -6.46767864 540.749376
-60.775524 -9.072338400000001 541.619856
-57.525515999999996 -5.437823760000001 539.506152
-61.724771999999994 -9.8689896 541.691136
-58.274740800000004 -4.6888963200000005 540.999648
-58.3418664 -6.54505416 539.31096
-60.339477599999995 -7.18249032 539.088408
-59.47932960000001 -6.77335608 539.7259680000001
-57.504052800000004 -4.73867784 541.5448319999999
-59.4980928 -5.36229144 541.452384
-58.8440376 -5.9053118399999995 540.395208
-58.034008799999995 -6.17946984 538.250328
-57.9502872 -3.89214 538.160832
-56.65451040000001 -3.0447864 540.333504
-58.7626344 -3.70393848 543.883176
-57.943720799999994 -3.7320206400000004 539.9458559999999
-58.774550399999995 -4.86045144 541.992312
-56.2803192 -4.25131848 541.207008
-56.1882096 -3.1477125600000004 541.40364
-57.793312799999995 -4.92955704 542.2806
-56.531844 -4.9833165600000005 542.060424
-58.0892544 -2.44300896 543.574008
-56.399011200000004 -3.9418480799999998 542.25684
-58.7724048 -6.1165332 543.56868
-59.970052800000005 -8.9831664 542.840112
-58.98002399999999 -6.79177152 544.20804
-48.99348 4.1063148 566.97948
-47.680264799999996 8.6974056 560.6526240000001
-48.735784800000005 8.6824008 560.2219200000001
-57.44969999999999 -3.21324408 542.9872799999999
-59.3283096 -4.66371792 544.762584
-57.575448 -4.31385768 542.688984
-59.619888 -5.78633472 545.006304
-59.566752 -7.648091999999999 542.6197920000001
-58.664736000000005 -5.70987432 544.5
-61.2183168 -6.7116628799999996 544.734432
-51.799946399999996 2.83601952 568.29312
-61.565299200000005 -7.8142032 544.3275600000001
-62.960256 -6.7270831200000005 545.682384
-60.208128 -7.17889824 544.1765760000001
-62.784669599999994 -11.1234384 542.267064
-60.817608 -10.003068 542.458872
-60.957446399999995 -8.322933599999999 540.580536
-34.6250232 -2.1077179200000002 577.795824
-60.3748224 -7.2820152 540.1891439999999
-63.1177488 -8.9524224 540.3276
-63.33598799999999 -8.1112464 537.993432
-63.400852799999996 -9.7137864 540.644544
-62.586417600000004 -9.399564 540.9832319999999
-62.0181504 -8.05032 539.15076
-62.447032799999995 -7.1659332 544.869144
-63.65268 -7.4736504 545.198976
-66.4043904 -8.9832888 545.055912
-62.8749288 -8.2250352 544.577472
-62.003325600000004 -6.60295512 545.425776
-63.3504816 -5.31930456 545.563368
-65.5595424 -7.18206336 546.248088
-62.221917600000005 -6.067995120000001 545.7649680000001
-57.5914824 5.0212857600000005 564.56532
-63.343764 -9.384048 544.231008
-63.8883864 -10.6562808 540.7938
-64.381248 -6.62117616 546.136992
-64.29926880000001 -9.816264 540.09324
-64.88503200000001 -7.7405112 545.423256
-65.6188416 -5.764519439999999 546.340896
-65.1912264 -10.8183672 543.9878640000001
-64.1461896 -8.512128 544.754808
-65.69926559999999 -9.7044624 538.789032
-64.306476 -8.679052800000001 537.66324
-65.00862719999999 -9.2160648 538.139592
-64.5335712 -11.522527199999999 541.1705039999999
-64.5653304 -9.525456 539.0975520000001
-63.856951200000005 -10.5944112 543.836952
-66.16046159999999 -10.2469032 539.5804559999999
-64.1664648 -12.002299200000001 542.417328
-63.152301599999994 -11.4095088 542.931696
-62.4189312 -2.51251992 574.475688
-63.468511199999995 -11.3330736 541.7942400000001
-64.3915368 -11.688948 543.23496
-62.4334464 -10.41102 543.692232
-59.892156 -2.3401864800000003 574.67916
-64.5873336 -2.02477104 573.385824
-63.1057032 -1.4637636 572.906448
-66.8468736 -1.6325776799999998 572.171616
-63.373802399999995 -1.9702152 573.574464
-65.99160719999999 1.86839712 567.79488
-63.77544 1.6071984000000001 568.655208
-62.941428 2.45680488 567.291744
-62.88156 1.88615088 568.324224
-62.444944799999995 -0.289319256 571.382568
-57.984818399999995 -1.5637427999999998 573.895008
-54.1233792 0.216125352 572.126256
-54.8667936 0.8318181600000001 571.193784
-54.712684800000005 -2.45490048 575.651952
-58.8752208 -2.60777736 574.969608
-60.012755999999996 -1.5620284800000002 573.725016
-56.781 -4.074312959999999 577.522872
-63.955353599999995 -1.5474729600000001 572.686416
-63.1280304 -6.751678319999999 580.388112
-59.9030208 -3.8675555999999998 576.642888
-58.9446432 -4.61990664 578.0072160000001
-58.675176 -3.50402904 576.53208
-57.9523392 -2.3080716 574.720848
-54.9544176 2.487294 568.6827119999999
-60.030396 -0.72438408 572.599296
-65.9889648 -2.0082081599999997 572.9891759999999
-63.8943192 -2.5412868 574.410744
-66.1053456 -1.25647128 571.742568
-65.2675464 -2.70441792 574.2336240000001
-66.8212056 -2.75591664 574.196328
-57.2023224 -3.2968663200000003 576.5047920000001
-65.8923624 -3.43295208 575.119224
-64.4580072 -3.26377944 575.408448
-63.218656800000005 -3.0506378400000003 575.163072
-64.1834352 -3.99225456 576.5523119999999
-62.142825599999995 -3.21714072 575.571312
-66.2828976 -3.8243591999999995 575.708472
-65.0310192 -9.276408 583.835328
-64.81412639999999 -9.9384048 584.651448
-65.27360159999999 -10.4405616 585.260568
-64.4432256 -5.62608792 578.504232
-64.95953759999999 -7.4139479999999995 581.007384
-65.856492 -9.0143352 582.987456
-62.92015920000001 -10.102442400000001 585.2358
-64.8597744 -8.549784 582.787008
-63.799884 -7.8773616 582.384168
-62.857360799999995 -7.337944800000001 581.657688
-59.9647536 -6.56612712 580.803408
-54.2310624 -8.4280176 584.307504
-57.0291336 -6.28205688 580.7844
-61.294068 -8.082756 582.8549760000001
-55.9069128 -7.7853312 582.7082399999999
-59.476212 -8.5183272 583.757064
-54.9831456 -7.5766968 582.266736
-56.813508 -7.822173599999999 583.052976
-56.263802399999996 -8.405244 583.625736
-57.80674080000001 -9.207432 585.166968
-63.83965680000001 -9.6278904 584.460792
-62.0087544 -8.7617664 583.529904
-61.414048799999996 -9.321083999999999 584.3505600000001
-62.610242400000004 -9.3387744 584.364888
-60.2177256 -9.303696 584.477712
-60.751425600000005 -8.7667416 583.564824
-60.127055999999996 -8.0004744 582.8784479999999
-57.798324 -8.456191200000001 583.780896
-58.4169696 -7.181642159999999 581.7987360000001
-56.5971696 -9.074304 584.637912
-51.935018400000004 -8.5540032 583.944264
-58.985992800000005 -9.0879048 584.736552
-56.6382672 -10.517832 586.563768
-59.6873808 -9.844588799999999 585.419616
-60.171343199999995 -10.517803200000001 586.295928
-58.6967256 -9.653277600000001 585.570888
-60.95437199999999 -9.938304 585.324
-64.75219200000001 -10.7059968 585.924624
-62.4183264 -10.5874776 586.1949119999999
-61.904512800000006 -10.2127824 585.565344
-61.95828960000001 -9.712439999999999 584.9992080000001
-63.6894792 -10.6317 586.280304
-64.2020328 -10.2796776 585.253368
-66.4605432 -9.4156416 583.688016
-57.1293864 -5.2680636000000005 579.259656
-65.73879360000001 -10.9086984 586.111104
-63.528336 -8.7617016 583.4632320000001
-63.810345600000005 -6.297775919999999 579.339216
-62.71043040000001 -6.16327848 579.4449119999999
-65.6032608 -7.09172352 580.482576
-66.5461368 -6.872965199999999 579.9911040000001
-65.5569 -5.70021912 578.492496
-66.3133608 -5.4017791200000005 577.889424
-63.1885032 -3.62947104 575.99676
-65.27505599999999 -6.427283760000001 579.370896
-60.1329672 -5.0951800800000004 578.62116
-66.660048 -6.1533266399999995 578.894976
-62.077219199999995 -4.348540799999999 577.238112
-64.955916 -4.4197056 577.060992
-65.1738024 -5.15077344 577.70856
-58.084963200000004 -6.53030712 580.93812
-62.077802399999996 -3.8023761599999997 576.511056
-61.515108000000005 -4.80355704 578.013912
-60.0576048 -5.90657688 579.705696
-59.016823200000005 -6.77263752 581.125896
-57.3367248 -6.844914 581.666904
-58.925541599999995 -6.231437280000001 580.247064
-58.6541088 -5.39834832 579.1327200000001
-57.768933600000004 -5.895864 580.054896
-57.6487296 -4.631165279999999 578.3047200000001
-60.10524 -4.44330504 577.568232
-63.028850399999996 -4.2309928800000005 576.928008
-59.1353208 -4.02735312 577.2565440000001
-58.0732128 -3.92919552 577.4053680000001
-61.091064 -4.13382744 577.013832
-62.708831999999994 -4.67110152 577.723032
-60.9540912 -3.5132536799999996 576.088848
-59.60440799999999 -3.1482676799999996 575.647416
-65.9741904 -4.7019283199999995 577.019664
-62.9625168 -5.36996016 578.597616
-63.9372024 -4.72285584 577.638576
-65.4897672 -3.92344848 576.180864
-66.6745416 4.54820616 563.815656
-61.7185008 5.09758776 564.036264
-63.71453519999999 3.8025295199999998 565.368984
-65.9879928 5.08277736 563.082696
-64.24307280000001 4.4431632 564.334344
-62.3886696 3.74844168 565.687512
-62.840995199999995 5.3537724 563.330232
-59.9027616 6.39440064 562.1986079999999
-62.9376768 6.16518072 562.103208
-59.6975112 4.53095784 564.883704
-61.8527448 1.6121894399999999 568.95084
-61.10713440000001 3.4761348 566.0232480000001
-62.010237599999996 2.9227658400000003 566.683632
-53.1445464 2.6536428 568.7922239999999
-56.926778399999996 3.8186488800000005 566.496144
-57.1457376 3.0514665599999997 567.6246719999999
-61.839885599999995 2.2025376 567.777744
-60.6456576 2.70383256 567.238464
-63.245080800000004 3.1280544 566.3741759999999
-66.0465144 3.2125284 565.662744
-60.5878632 4.69165104 564.462432
-65.4740712 4.4926783200000004 564.078096
-61.7652576 5.77133568 562.948992
-63.733636800000006 4.9789404 563.642784
-66.4129584 5.67331848 562.128192
-66.7797336 6.31705536 561.190896
-64.0038024 5.58648216 562.751784
-65.2363632 5.676158879999999 562.461048
-64.7688384 5.0471049599999995 563.3886239999999
-59.64495840000001 7.04258064 561.4902000000001
-60.7027824 6.060263760000001 562.565304
-60.680988 6.74069184 561.7050479999999
-61.6501152 6.399375119999999 561.945744
-62.3071296 6.7899369599999995 561.1029120000001
-60.6281328 7.4462472 560.6603279999999
-61.4202552 6.93898128 561.194208
-54.6310512 8.2959552 560.349648
-56.766203999999995 7.2468648 561.502584
-65.717316 6.18834168 561.679272
-61.720524000000005 7.3176264 560.521224
-63.61434 7.258068 560.117088
-59.433242400000005 8.9187264 558.673416
-64.457712 7.03767168 560.529792
-65.59747920000001 6.70468464 560.845872
-65.3929488 7.366946400000001 559.913472
-63.773481600000004 8.253359999999999 559.042272
-64.2556512 7.6223664 559.70208
-63.4045752 6.75585504 560.878632
-60.5927952 10.009116 557.004168
-64.63488960000001 10.132257599999999 556.280208
-67.17384 8.832772799999999 557.438328
-64.2876336 8.7506424 558.217296
-63.4451184 10.7149536 555.654456
-62.8534944 11.413245600000002 554.71032
-63.4026168 11.796919200000001 554.025096
-62.1881352 12.2887944 552.944808
-62.0104824 10.7784576 555.360192
-63.5742072 9.309816 557.620488
-63.1038456 8.8065216 558.323568
-65.7880992 8.5964328 558.021384
-62.641065600000005 7.337196 560.070576
-60.7017744 8.84772 558.686736
-63.3796848 7.714785600000001 559.597968
-61.9381512 8.8335936 558.518472
-57.6887472 11.30022 555.4735919999999
-57.735612 9.715723200000001 557.73324
-56.696126400000004 8.4606192 559.849752
-57.1697208 12.4633008 553.706856
-57.150388799999995 10.8531072 556.148448
-61.207315200000004 9.476604 557.76888
-54.5933952 12.2359392 554.6077200000001
-56.17521359999999 10.6067232 556.579944
-60.6510864 11.0307312 555.227784
-61.186672800000004 10.3201056 556.116624
-58.0736736 10.7572896 556.278408
-61.54141680000001 9.9138888 556.934688
-53.9227728 11.629764 555.622704
-53.654724 10.280714399999999 557.411688
-52.053011999999995 11.2571928 556.432632
-53.2489536 10.997208 556.56648
-51.929618399999995 12.3890832 554.649696
-55.5631776 11.9344752 554.693112
-53.239104 12.5055072 554.34924
-49.8514464 13.012898400000001 554.2760159999999
-51.6508344 11.8348776 555.5260079999999
-50.8073112 12.2835744 554.89932
-56.3542344 12.1915008 554.2306560000001
-55.40779440000001 12.661631999999999 553.828032
-57.378297599999996 10.3160376 556.901712
-54.6268896 10.6402248 556.799616
-55.7445024 9.9078264 557.689392
-56.761113599999995 9.9521136 557.48916
-51.6248712 9.1610208 559.38888
-54.534376800000004 9.7668432 558.005184
-55.5903936 9.2543616 558.716256
-54.317772000000005 9.0800424 559.184256
-49.4763192 7.6135464 561.612384
-52.881566400000004 9.2061144 559.231272
-50.9080536 9.7815024 558.819432
-51.110424 8.5139208 560.43612
-53.415259199999994 8.215091999999999 560.561544
-50.1234768 8.1156168 560.895408
-51.522948 5.2237872 565.214904
-48.3952104 11.5410888 556.7662799999999
-49.9114224 9.9853992 558.723888
-52.5926736 10.471521599999999 557.3914560000001
-51.6911328 7.105501439999999 562.483512
-48.7710072 10.1291904 558.51012
-50.4275256 9.2483352 559.506456
-49.683564 6.514929359999999 563.24088
-49.5262584 10.5867144 557.786808
-50.1385392 10.9170648 556.95348
-48.5475768 10.8502416 557.578584
-50.7222504 11.5310592 556.034616
-47.126728799999995 12.7241712 554.69052
-51.007356 12.987828 553.968504
-52.100337599999996 13.116276 553.6363680000001
-51.165482399999995 13.700484 553.158864
-44.771831999999996 12.8280384 555.405984
-43.1712792 13.7480256 553.920048
-48.1407912 12.1592736 555.696864
-49.5931032 12.305736 555.265872
-50.8479264 7.7861448 561.570624
-46.4354784 9.236822400000001 560.110176
-49.8234168 8.611696799999999 560.15064
-55.6522704 8.63226 559.637424
-52.402766400000004 7.889256 561.235104
-52.5057408 8.5903632 560.1247199999999
-49.2366312 9.3342528 559.4006880000001
-53.9229384 7.6737312 561.199392
-53.5651056 8.6933592 559.9197360000001
-49.63374 4.6910988 566.212104
-51.0461496 5.799273840000001 564.246
-54.4555512 6.6993580800000005 562.6033199999999
-55.415376 6.329594879999999 563.037768
-50.702227199999996 6.4735574399999996 563.3465759999999
-54.442663200000005 6.1752679200000005 563.489856
-48.9993408 6.996247919999999 562.677696
-49.3437024 8.183296799999999 560.78028
-47.68925039999999 8.0882352 561.4575120000001
-49.0665168 5.244228720000001 565.3116
-53.10765359999999 4.18890672 566.782704
-48.398255999999996 4.62864816 566.248824
-47.604844799999995 5.22549288 565.425936
-46.3595688 5.756921279999999 565.02
-48.5369136 5.780510640000001 564.5976479999999
-52.16724000000001 4.6551513600000005 566.1051120000001
-50.3410104 5.17305096 565.198992
-47.5861896 7.05604032 563.102712
-48.689208 6.366046320000001 563.6774879999999
-47.1666168 4.340024639999999 566.5788719999999
-48.391660800000004 3.4536398399999997 567.722232
-47.834711999999996 2.1302171999999997 569.75472
-51.9441408 3.82056408 567.14256
-53.0601336 3.34325808 567.78012
-50.922446400000005 4.55391288 566.3957760000001
-52.1455536 5.7671474400000005 564.341544
-52.8110496 6.22056024 563.6952
-51.824764800000004 6.3497916000000005 563.4846
-50.232168 7.11365112 562.5072720000001
-46.7903592 8.2768752 561.152376
-49.735512 5.82962256 564.164496
-48.618539999999996 -2.37907368 576.27072
-45.63486 -3.12345432 578.052864
-47.871446399999996 -0.38360735999999995 573.1847280000001
-47.696176799999996 -3.6445485599999996 578.324664
-49.7250576 -2.34329688 575.94132
-43.640877599999996 -0.75310992 574.920288
-40.0913856 -0.20934568799999997 574.3782
-39.335436 0.047269799999999994 574.133184
-48.0694536 -4.15784088 579.14676
-52.825975199999995 -2.29324248 575.937072
-51.589836 -3.30699096 577.300824
-50.262083999999994 -3.62394216 577.761696
-50.601160799999995 -1.71473256 575.213688
-53.0848296 -1.78341336 574.959888
-53.753615999999994 -2.06790696 575.559216
-55.8673128 -2.9094105599999995 575.959608
-51.8942448 -2.08362888 575.253432
-48.348057600000004 -3.04152048 577.481184
-52.7244264 -3.00392856 576.9056879999999
-51.500678400000005 -4.2342515999999994 578.388816
-54.9403272 -4.6557583199999995 578.5974
-51.633972 -4.9689669599999995 579.385584
-55.5587352 -4.1323881600000005 577.786752
-52.6337568 -4.8322152 578.87172
-52.6326048 -3.9398688 577.818648
-49.273272 -3.3708520799999997 577.703808
-47.586996 -4.6388412 579.7944
-46.6956 -3.54551256 578.3703840000001
-47.3609016 -2.34115488 576.706896
-41.42862 -2.48052744 576.941328
-46.08599039999999 -3.9676190399999998 578.939616
-47.1231864 -4.09095648 578.988216
-48.988051199999994 -3.9291357600000003 578.502504
-48.8890656 -4.77620352 579.86568
-50.005584000000006 -5.43711024 580.450608
-50.6550528 -6.029420399999999 581.00292
-49.0300704 -5.62411656 580.80492
-40.27446 -5.54603328 581.956272
-50.8790592 -8.2957752 584.192664
-53.0612856 -8.4213936 584.024688
-52.325531999999995 -9.0423936 584.9151840000001
-49.706308799999995 -8.1543816 584.479872
-47.630412 -7.763925599999999 584.049312
-51.3212544 -8.8854984 585.090648
-43.9128504 -6.4524722400000005 582.290424
-47.0396088 -6.709791600000001 582.31944
-51.505055999999996 -7.9938215999999995 583.160688
-47.162649599999995 -8.400132 585.001296
-54.546199200000004 -10.8147816 587.142216
-52.6565448 -9.4239432 585.6681600000001
-55.1233728 -8.160552 583.3674
-54.44856 -9.214725600000001 585.259776
-55.782820799999996 -7.17861744 582.017112
-55.376308800000004 -8.8465176 584.400672
-56.7184392 -5.745787920000001 580.0566239999999
-57.6161568 -7.546608 582.5743200000001
-56.603246399999996 -7.2292464 582.2928
-56.3124384 -6.67210608 581.471208
-53.9965368 -7.9201512 583.029144
-48.058552799999994 -7.14557592 582.86376
-53.9372952 -5.30488512 579.528216
-53.9578728 -7.031808719999999 581.67576
-55.2669408 -6.79031064 581.385384
-52.4583144 -5.725512719999999 580.12236
-53.539502399999996 -6.2036510400000004 580.609728
-51.1473024 -5.50308528 580.233744
-53.729316 -4.41977976 578.3256
-49.7260296 -6.166810079999999 581.362848
-51.5401344 -6.412948559999999 581.04468
-50.5859544 -6.78588912 581.794416
-52.6426632 -6.74361072 581.361696
-48.356661599999995 -6.31860624 581.6322
-50.3621568 -4.60653048 579.267
-48.5626896 -0.9639626400000001 574.286184
-38.4878664 -4.1263848 579.678912
-47.9693664 -5.41536336 580.629096
-47.5555176 1.5793207200000001 570.681792
-50.160009599999995 -0.9165679200000001 574.04844
-44.9840016 -1.09400328 575.217432
-48.88044000000001 0.345517056 572.393376
-47.8865376 0.45997178399999994 572.299488
-47.2461264 0.9115970400000001 571.726656
-49.6843488 1.46808432 570.57408
-48.675052799999996 1.73955456 570.1281839999999
-48.53512799999999 1.027386 571.331448
-52.337253600000004 2.03526792 569.4155999999999
-50.3210808 -0.251874216 573.084072
-52.6730616 0.75708432 571.4334
-50.8813344 0.166462416 572.57712
-51.3282888 -0.35802237600000003 573.156936
-52.496856 -1.69432128 574.46028
-51.930885599999996 0.352791648 572.1972480000001
-51.7711608 0.93201264 571.1569920000001
-56.285834400000006 -0.453920616 572.844528
-56.152274399999996 0.8378244 570.964752
-53.2170288 -1.26345312 573.977016
-52.838028 1.2751797599999999 570.45708
-54.66666239999999 1.8971020800000002 569.493
-54.409932 3.7019772000000004 567.27216
-54.11848320000001 3.0400056 568.331496
-50.3378784 2.80212336 568.386216
-48.60174239999999 2.232846 569.22516
-49.5853344 3.46208976 567.640368
-47.148631200000004 3.62278296 567.679176
-49.041360000000005 2.72724192 568.42092
-42.7818096 2.0269944 570.8556
-51.0753888 2.1861216 569.2779360000001
-50.5792728 1.7723023199999999 570.0917519999999
-47.6609184 2.8136015999999997 568.794888
-46.55596320000001 2.21874408 569.9894400000001
-51.5717568 1.5390129600000002 570.191976
-45.9359568 3.07764792 568.698408
-41.6775096 2.84708808 569.886048
-43.8131016 3.94913952 567.863568
-42.531976799999995 3.39860808 568.8502560000001
-44.1882 1.8761688 570.5418960000001
-41.198904 3.6770918399999997 568.6579439999999
-40.025952 3.2278751999999997 569.41308
-39.8415816 4.1346252 568.167336
-45.8288352 4.0624106399999995 567.3636720000001
-46.203710400000006 4.909482000000001 566.09712
-39.3507648 5.83163136 565.781616
-39.0900096 5.4441072 566.64324
-44.996284800000005 4.77183672 566.648856
-45.257184 5.43208248 565.591536
-44.642527199999996 4.17147336 567.459648
-42.0118992 4.68168912 566.99784
-43.0260192 5.03115336 566.528544
-43.9121016 4.55931288 567.01944
