# .PCD v0.7 - Point Cloud Data file format
VERSION 0.7
FIELDS x y z
SIZE 4 4 4
TYPE F F F
COUNT 1 1 1
WIDTH 1171
HEIGHT 1
VIEWPOINT 0 0 0 1 0 0 0
POINTS 1171
DATA ascii
-87.156432 9.7293816 507.44786400000004
-94.97627999999999 11.2904784 506.848896
-89.446608 12.7485576 503.46648
-92.733264 11.7596448 505.928952
-91.963368 12.4659576 504.31665599999997
-98.888328 10.826964 508.788288
-97.256016 10.745942399999999 508.450032
-83.53116 9.888991200000001 506.15121600000003
-96.02784 9.678434399999999 510.410304
-97.08472800000001 7.5830616 514.473768
-99.462168 10.1869488 510.416424
-95.46264000000001 7.5887784 514.502928
-100.710144 6.9537564000000005 517.103568
-100.76774400000001 7.4014056 516.0468960000001
-88.431264 7.437938399999999 512.2314719999999
-87.066864 11.7573912 504.40910399999996
-81.853272 9.611927999999999 506.005488
-76.46688 8.4123576 507.52641600000004
-80.569008 9.0956016 507.27837600000004
-76.619664 9.542736 505.21478399999995
-75.641256 5.656741199999999 513.49284
-99.231048 1.06582896 523.340352
-92.75076 -0.8658194399999999 530.227152
-95.702832 -1.6593408 531.6597360000001
-82.605096 7.099102800000001 511.03353599999997
-104.807592 0.85230504 513.973512
-107.74051200000001 -0.7983612000000001 499.825296
-107.1072 0.8171769600000001 512.285256
-107.510832 0.99134856 510.54444
-106.240824 1.5849468 513.547776
-109.44237600000001 1.14586128 503.786376
-106.86369599999999 -0.532293048 509.50123199999996
-108.65268 -7.0292052 512.45424
-107.161344 2.4028416000000004 512.735256
-107.352144 -6.663486239999999 513.298944
-108.443232 -10.065888000000001 512.301024
-106.95103200000001 -9.9115056 514.1470320000001
-107.42724 -1.12018392 513.0316799999999
-103.192848 0.157214664 516.628728
-89.031888 -9.739022400000001 545.8150800000001
-83.240712 6.93991944 512.205408
-84.20421599999999 6.66994176 513.27936
-86.44845600000001 6.135228 514.219104
-81.895464 6.11682624 514.24884
-105.50412000000001 0.43207704 512.621208
-98.74188 7.8648552 514.737864
-100.390392 1.13306328 522.7979760000001
-97.566984 0.0235496376 522.909504
-104.740992 4.8136932 518.1710400000001
-101.883744 0.105794208 523.217232
-105.69607199999999 -3.97067544 519.578352
-104.262624 -5.31978336 520.177824
-98.856648 -0.0595035432 524.105928
-103.16757600000001 -0.11831464800000001 518.4164880000001
-104.808168 -0.7777087199999999 531.1998
-97.843032 5.18808096 518.610744
-101.957472 0.595320696 519.583536
-100.58407199999999 0.8084973599999999 524.445984
-94.608792 -5.71825296 539.294544
-92.955816 -3.3209892 534.257784
-99.209592 -1.4795920800000002 530.823312
-101.10434400000001 -0.504931032 526.882536
-103.65753600000001 -0.467234712 523.904688
-101.360592 -0.218087784 525.760632
-99.682632 -0.50185476 525.616416
-101.179656 -0.327539952 528.543648
-96.50433600000001 -0.417352968 528.3792
-100.295784 -6.46381584 541.901376
-96.671952 -3.35723472 535.036104
-100.703016 -3.42216144 536.261544
-97.470576 -4.748502960000001 537.6222
-95.604408 2.9775225599999997 521.93412
-86.499432 2.53759968 522.038664
-95.9724 3.79247616 520.522776
-94.760568 3.9640967999999996 520.8719759999999
-100.107504 3.5123363999999997 518.971392
-90.08524799999999 3.5696224799999996 520.534008
-102.62995199999999 -2.17882872 522.416016
-93.28802400000001 6.40611072 515.858328
-94.97145599999999 4.6301839199999995 519.6014640000001
-98.845344 2.58014952 520.704792
-95.691888 5.84916048 516.6740159999999
-96.835104 6.25299768 516.631248
-111.231072 -2.6876800800000002 521.096328
-104.33988000000001 1.4472093600000002 524.221992
-104.423112 0.9905364 523.351872
-97.76008800000001 6.792164639999999 515.7926640000001
-102.58027200000001 7.4966904 516.120624
-104.70456 7.985786399999999 515.910528
-103.61556 7.784596800000001 516.176424
-98.968464 4.4840160000000004 519.071112
-98.095608 6.353912159999999 517.538448
-96.71385599999999 5.60884032 517.7453760000001
-99.05363999999999 3.33623448 519.696288
-102.237696 4.56255288 518.3413919999999
-103.594896 4.24782288 518.5591919999999
-100.848456 4.810284 518.4281520000001
-99.687816 4.916897280000001 518.589648
-98.808768 5.6272046399999995 518.521464
-99.475128 7.06961808 516.260088
-101.715552 6.25242456 518.167584
-103.32136799999999 5.40074592 518.209704
-100.37339999999999 7.9314768 515.007936
-102.898008 7.918999200000001 515.1430799999999
-99.919224 6.29415 518.010192
-102.17664 1.04396256 517.9834079999999
-103.22193600000001 1.27166112 516.7854
-98.11893599999999 4.40428536 519.563232
-100.60271999999999 2.91096432 520.274448
-104.47761600000001 -0.11223763199999999 524.478528
-102.24936 -0.286048224 525.981312
-110.570976 1.3214519999999998 529.4181600000001
-114.625008 -2.9998965600000003 537.339456
-103.002624 -0.691692624 522.27072
-103.71146399999999 -1.0849284 518.6373120000001
-104.56711200000001 0.735696 525.6230400000001
-104.177088 2.4256540799999997 517.307256
-103.70808 0.47452967999999995 522.94896
-104.24757600000001 1.04292144 515.0543759999999
-103.51224 0.8071452 515.718648
-105.032808 8.401017600000001 514.86984
-103.993488 8.289950399999999 515.267424
-104.595552 7.1327376 516.7275119999999
-103.16404800000001 2.05826544 518.302296
-103.616496 -0.056659788 526.563144
-105.059592 1.39548168 522.80208
-104.888304 -0.5526245519999999 521.663544
-107.25544800000002 2.4583284 522.303624
-108.66024 3.90048984 524.4554880000001
-106.02172800000001 0.548976744 528.152832
-110.902392 3.1914619199999996 522.488448
-109.29160800000001 3.64680216 525.655512
-108.39319199999998 2.73087936 525.992688
-109.49457600000001 2.50349472 527.092416
-110.228832 4.48357104 523.978848
-108.673848 3.38401008 522.256392
-103.092408 6.77907432 517.112064
-105.60311999999999 1.96720272 515.085408
-104.694264 -0.52527132 514.720512
-105.855624 -1.201662 517.262976
-104.52772800000001 -0.519843816 517.953888
-105.85296000000001 -0.9236894400000001 515.561256
-106.815888 -0.649067328 514.567872
-108.452232 -2.16453816 515.011536
-102.94718400000001 -1.23446016 522.4536
-104.946192 -2.8572026399999997 517.25088
-106.846992 1.379718 521.0652240000001
-103.48596 -2.64421872 518.485752
-104.607216 -4.459146479999999 516.727224
-107.505504 -1.63707408 520.064568
-130.019328 -0.501368616 537.877224
-115.06536000000001 -5.3057412 540.91728
-124.7976 -2.77469208 539.853336
-103.197024 -3.69862272 536.268528
-102.7296 -0.8733412799999999 523.076904
-103.21142400000001 -1.2748176 519.806304
-105.33096 -7.7236416000000006 516.314448
-107.234928 -3.52107288 515.430216
-106.064856 -3.0645396000000003 516.497616
-107.420688 -1.6160256 516.284496
-162.064368 17.1676152 507.97648799999996
-161.017344 15.9628608 511.571448
-162.027864 16.7114952 511.07904
-160.331976 16.5764016 510.436584
-159.93972 16.0949736 509.07225600000004
-163.434168 17.024846399999998 508.69526399999995
-161.866656 17.0764848 509.586336
-155.280888 6.82393536 502.64208
-160.088472 15.217776 509.77022400000004
-164.755008 15.816412799999998 511.007976
-160.16205599999998 14.9724648 510.954048
-161.015472 14.8402152 511.788456
-165.225024 15.5111112 512.084736
-166.129416 15.5047248 512.819928
-109.590192 2.17848816 503.840952
-190.081944 38.228975999999996 476.623512
-153.75247199999998 31.5545976 478.178208
-155.737728 32.673276 476.77528800000005
-159.029928 33.3425232 477.211104
-164.73744 28.397311199999997 486.53244
-155.737008 27.858924 486.239544
-160.808112 25.967664 490.093776
-158.6736 27.994168799999997 486.54828000000003
-153.053784 27.894614400000002 487.67724000000004
-153.302328 28.2658464 486.1008
-160.03764 28.581155999999996 486.026424
-159.57820800000002 29.519856 484.50304800000004
-162.96940800000002 31.1404464 482.714352
-158.163696 30.468556799999998 482.069664
-163.903176 34.972164 475.902576
-156.065328 28.517990400000002 484.61832000000004
-157.42043999999999 27.5041008 487.089072
-156.400056 26.8069896 487.788696
-156.312792 29.3630328 483.319728
-153.4626 29.0316456 483.381288
-157.33908 28.1381832 485.78018399999996
-154.769472 29.238732000000002 483.45444000000003
-153.834336 31.008369599999998 479.880216
-155.49616799999998 30.656635199999997 481.24346399999996
-157.952592 29.8159488 483.20654399999995
-155.357496 22.1596128 497.940696
-157.772808 30.6430776 481.02299999999997
-158.797728 35.6277744 473.40957599999996
-155.42452799999998 31.2846264 478.815696
-152.644248 30.3584832 481.1724
-156.740256 30.2481 481.92796799999996
-157.60944 29.022803999999997 484.555104
-151.848216 27.6777792 488.415816
-154.345464 28.6307568 484.667712
-174.192408 35.6528736 478.47160799999995
-155.092176 30.8131776 480.227904
-144.25300800000002 30.5183736 477.45957599999997
-140.83632 28.496642400000002 480.874392
-148.41590399999998 29.2923576 481.98945599999996
-151.41808799999998 28.2847824 486.898344
-143.43033599999998 29.763863999999998 478.55685600000004
-142.178112 29.4176376 479.167128
-149.738688 32.2550856 477.11591999999996
-138.566736 31.157380800000002 476.27776800000004
-137.404944 29.8749888 478.127304
-136.066608 30.1770072 477.4878
-146.049192 30.584167199999996 477.115416
-131.362344 31.3931088 472.621176
-141.279984 31.4713944 475.49462400000004
-143.152344 31.7773728 476.61105599999996
-142.199064 29.936988000000003 478.106496
-154.67436 27.5215824 487.69164
-152.08221600000002 7.5437208 476.94996000000003
-150.54984000000002 7.7949216 477.72648000000004
-151.48065599999998 7.2190368 474.415632
-142.516512 0.9008985599999999 475.318008
-144.614304 28.4890896 483.67094399999996
-137.116656 26.4155472 482.120712
-137.45988 27.429876 480.98743199999996
-139.389336 28.0928232 479.416176
-124.02640799999999 27.015926399999998 481.84912799999995
-129.470328 27.097416 474.525648
-136.1466 29.3285304 478.73318400000005
-129.612528 26.5300848 473.27832
-128.603376 29.059027200000003 473.45486400000004
-129.10536 27.9056448 472.942512
-133.750224 27.693446400000003 478.168128
-136.62648000000002 28.4552784 479.93248800000003
-137.3256 30.883845599999997 477.16725600000007
-132.99271199999998 29.028276 477.72727199999997
-133.548624 30.7372896 475.72308
-129.42612 29.5601544 473.26975200000004
-131.00097599999998 30.3027336 473.499432
-131.76115199999998 30.703860000000002 475.89976799999994
-141.810336 30.43602 476.92339200000004
-133.050312 30.3059304 477.249192
-113.251032 22.8085416 488.81232
-115.16364 22.811565599999998 489.59755199999995
-134.453592 29.584252799999998 478.25755200000003
-138.521304 29.186611199999998 478.932552
-137.398896 29.2474872 479.37146400000006
-138.2994 19.3116384 479.72210399999994
-142.108632 18.191901599999998 482.45615999999995
-148.511736 31.5910368 477.085176
-144.888912 31.3551576 476.14226399999995
-139.95180000000002 32.463748800000005 474.716808
-142.954488 33.2997984 474.15556799999996
-149.280192 32.9241168 476.20483199999995
-147.286584 31.847702400000003 476.47259999999994
-150.471864 33.0290856 476.079336
-151.369416 32.4619488 477.02412
-154.65924 33.924996 475.76836799999995
-149.856984 34.2702504 473.41749599999997
-150.88975200000002 33.4650816 475.040232
-152.226144 31.713897600000003 477.87602400000003
-150.711192 31.30326 478.033776
-146.634336 32.5107216 475.10136
-147.92004 33.0952104 475.68780000000004
-147.298104 35.323236 471.96475200000003
-144.632448 35.4283704 471.12696
-151.802064 33.3304056 475.846992
-152.107848 2.4011676 476.75592
-151.425288 34.7290056 472.95899999999995
-152.920584 34.8752232 473.837184
-148.42152 33.722928 474.04497599999996
-155.48306399999998 36.152856 472.210272
-155.19715200000002 35.4476952 473.805288
-150.1272 39.031891200000004 466.105824
-148.100256 36.8986824 469.20888
-135.071352 31.9589856 473.91760800000003
-146.12479199999999 35.7030216 470.99519999999995
-145.88388 33.4716624 474.01919999999996
-147.200328 33.441804 474.480504
-138.316824 34.5594312 471.51756
-149.65452 33.2997336 474.867648
-145.431792 32.1771096 474.858648
-133.758648 31.876344 473.370552
-137.568096 32.7885912 473.82177600000006
-180.550512 42.4210752 467.150184
-132.509016 30.832667999999998 474.65200799999997
-139.637088 31.5841896 475.60456800000003
-142.49750400000002 32.426172 475.23247200000003
-133.8084 31.33638 474.42146399999996
-132.539616 31.338144 473.487408
-127.845432 29.4065352 472.74768
-135.310896 31.353804 475.36660800000004
-136.1268 30.9510648 476.508744
-149.078376 41.2532784 462.89088000000004
-142.363512 39.0064464 464.488488
-183.708 39.6016488 473.40612000000004
-130.85071200000002 35.1610056 467.99445599999996
-134.8974 40.1579712 459.183528
-105.85152000000001 32.0308272 469.16337599999997
-128.296584 36.589068 465.76224
-131.860728 38.072016000000005 462.73248
-143.313552 40.7050776 461.164032
-124.803936 33.749841599999996 468.22384800000003
-126.80877600000001 40.4302464 458.028648
-122.65732799999999 39.2869008 458.670096
-143.798544 36.8513496 467.92951200000005
-140.48568 36.3593016 467.77716
-134.99172000000002 34.732396800000004 470.571912
-128.15208 32.9272704 468.41997599999996
-150.503184 41.7620808 460.95343199999996
-126.919872 36.779796 464.87592
-125.86996800000001 36.4869864 465.00768
-136.395936 40.7666808 458.587224
-133.621848 40.4876448 458.468568
-143.975808 40.5827928 462.14625600000005
-138.97224 39.8523816 459.977832
-146.66004 41.0561208 461.776248
-133.111728 39.470133600000004 460.913472
-137.722968 39.2827968 460.73376
-143.469576 40.976136 460.204992
-142.60176 40.3587432 462.175272
-140.881464 40.060511999999996 462.13300799999996
-139.300416 39.429396 463.21387200000004
-155.308536 41.0264856 462.71102399999995
-153.145368 5.10297552 476.375328
-144.5454 -0.184548672 478.22680799999995
-151.2108 -0.87374016 479.477376
-151.084296 2.9672136 475.708464
-150.492456 4.02855192 475.17911999999995
-151.2774 9.807177600000001 474.30230400000005
-151.361784 5.749344 474.241392
-150.592536 11.361376799999999 470.984688
-149.69131199999998 6.168777840000001 473.924376
-149.864184 5.98192776 472.268664
-150.140808 10.0362312 470.784384
-148.47213599999998 5.63479488 473.561712
-150.33326399999999 2.38197024 476.522208
-152.362368 0.675557568 478.498824
-150.74856 1.48573584 477.611568
-145.381536 -0.75738672 479.03191200000003
-149.421168 -0.41327532 478.85364
-147.960072 0.166242096 478.16301599999997
-149.47523999999999 -0.92303784 480.126024
-148.25750399999998 -0.423172368 479.50668
-146.980296 0.8993642399999999 476.767368
-144.26049600000002 -1.20555216 479.26180800000003
-145.12867200000002 2.75668776 474.80500800000004
-144.61293600000002 1.5653678400000002 475.436664
-143.195832 -0.8432128799999999 478.531656
-146.087784 0.081878544 478.13399999999996
-143.176464 -1.46953296 479.68747199999996
-138.66804 -0.08907703199999999 476.227656
-143.580672 0.703049904 475.97205599999995
-147.95380799999998 3.9793248 474.49807200000004
-145.99656000000002 1.87172352 475.674696
-147.017232 5.391635760000001 472.21653599999996
-149.062896 3.5142407999999996 475.36156800000003
-145.45900799999998 5.81708376 471.3372
-142.180704 0.444671208 476.444736
-142.449768 5.4064252800000006 472.568472
-146.321352 3.42386136 474.960528
-146.81808 6.60851568 471.01716
-144.028944 13.8554208 471.309696
-140.939784 0.7382167199999999 475.19748
-143.172864 15.7778856 473.26975200000004
-147.781224 12.772670399999999 474.51765600000004
-149.472072 11.586607200000001 475.20432
-151.005528 11.1720744 473.397552
-140.025168 17.5785624 475.61090399999995
-138.649968 12.4129584 472.71131999999994
-142.177248 1.68875568 474.473448
-144.079272 5.891869440000001 472.09096800000003
-145.671768 14.08482 472.831704
-137.725848 14.035658399999999 473.438448
-139.768344 1.126728 474.148872
-139.2192 0.6367536 475.116696
-140.314104 13.264243200000001 472.872816
-136.342584 0.88161192 473.56776
-130.834872 -1.26748368 483.21252000000004
-139.81788 0.36040816800000003 476.154864
-140.548968 -0.82766088 478.214424
-139.538304 -0.507790296 477.143136
-140.808096 0.0417091608 476.82856799999996
-140.774976 1.8610912800000001 473.934024
-129.62268 1.464444 475.974864
-128.414952 3.43435608 474.49476
-128.694816 21.017397600000002 473.18212800000003
-124.75749599999999 27.408204 474.987168
-134.146152 20.6630496 476.75937600000003
-132.803928 18.4057704 476.82331200000004
-137.515752 22.7286288 482.49475200000006
-134.5122 23.896692 480.559392
-135.080856 21.5055144 479.401128
-137.076408 19.0707408 477.381384
-133.07234400000002 16.5465072 475.03468799999996
-136.447056 9.3739392 471.59200799999996
-141.735816 13.9835376 472.39128
-129.840408 23.076741600000002 474.080256
-136.602 7.3327032 472.002624
-135.513216 12.6635328 471.85084800000004
-135.163008 5.66426664 471.992328
-139.37364 16.7050584 474.20344800000004
-136.41407999999998 14.7809592 472.96101600000003
-127.92081599999999 7.9340616 478.7946
-134.03304 10.282053600000001 471.07180800000003
-132.076728 4.74216768 470.09692799999993
-133.303176 5.17539888 471.40538399999997
-134.74526400000002 -0.0645526728 472.149648
-133.013376 -2.3485824 473.18349600000005
-143.2494 2.47434264 474.010632
-133.4754 -0.6029390880000001 471.94034400000004
-139.351176 4.38279192 470.93868
-141.206976 4.92237288 472.035168
-141.927624 2.9150762400000003 473.961168
-138.64536 10.9884528 471.05459999999994
-140.47884 4.1141894400000005 472.03761599999996
-141.666696 4.55265072 473.878944
-142.778088 6.48409968 470.78661600000004
-141.85512 15.4879056 473.09954400000004
-141.658344 10.2891312 469.783872
-138.70188 15.410800799999999 473.77850400000005
-139.735152 11.4424344 470.638584
-137.35756800000001 15.3630504 473.58612
-137.634336 16.483824 474.18444000000005
-140.862384 14.4153 473.28127199999994
-140.31108 15.5309256 473.657616
-139.501368 14.0886072 473.627592
-141.158736 8.868931199999999 469.20988800000003
-132.63876000000002 10.3197816 470.188944
-139.17931199999998 6.8807484 469.39226399999995
-137.95135199999999 6.591216960000001 469.09943999999996
-138.124224 3.5155958399999996 470.928672
-136.49796 4.637228400000001 469.64332800000005
-134.309808 3.23091144 470.210544
-135.05436 2.47065984 470.74514400000004
-133.13584799999998 2.23779096 470.72303999999997
-132.391152 0.7947208800000001 471.14171999999996
-131.865624 1.41101352 469.915704
-131.472144 -0.23570906400000002 469.751328
-130.041936 3.42620712 469.368288
-127.48838400000001 11.0923056 472.065192
-128.397024 7.6815864000000005 473.100912
-128.683944 7.584444 475.113384
-128.980512 9.967356 474.08248799999996
-128.69690400000002 2.1402792 469.22479200000004
-127.853568 -4.96621296 474.81674399999997
-130.314816 1.03707288 469.33725599999997
-141.97536 11.1572496 468.777312
-144.650736 12.3633648 468.48074399999996
-143.022816 12.198045599999999 468.78263999999996
-144.15595199999998 8.9972784 469.787976
-144.284616 11.4067152 468.38268000000005
-147.049632 10.2939264 469.352952
-149.233032 8.4619224 470.057544
-142.66044 13.510821599999998 471.150792
-147.047976 9.047937600000001 469.717992
-146.234592 10.0128672 469.242432
-140.95764 10.7328384 469.715976
-146.049552 11.2655376 468.749664
-143.598672 13.4364096 469.53532799999994
-144.808848 10.467432 469.47880799999996
-147.515688 11.3487264 469.829376
-149.04698399999998 11.199708 470.60884799999997
-148.275216 9.843372 470.61712800000004
-145.658448 8.8881768 469.638288
-141.931152 12.375396 469.780632
-140.460408 7.81884 469.51711200000005
-142.62408 8.971999199999999 469.432152
-140.97096 11.715033600000002 470.94235199999997
-141.186024 6.28618824 469.82570400000003
-141.538032 5.07994488 470.676528
-139.810824 6.039512640000001 470.85645600000004
-140.55408 5.27052312 471.44793599999997
-146.321064 7.754335200000001 470.047104
-137.845728 5.10839064 469.832976
-142.903512 -3.0323318400000003 481.673016
-144.032544 -1.7805650400000002 480.364776
-150.829056 -2.02864536 480.78619199999997
-152.13384000000002 -0.7523532 480.46788
-146.34158399999998 -1.62662616 481.05136799999997
-147.733776 -2.17848384 481.299192
-144.10836 -2.5414811999999998 482.74243199999995
-144.99179999999998 -1.6943846400000002 481.014864
-140.246496 -1.83379824 479.531088
-141.493968 -2.67888024 480.551832
-144.809424 -3.20204952 484.02007199999997
-148.52844 -4.710308400000001 493.69521599999996
-141.917616 -4.41060912 484.704
-141.329088 -4.06400544 481.98002399999996
-147.160512 -4.605152400000001 484.66584000000006
-146.30436 -3.4930461600000005 483.822792
-145.50372000000002 -2.4497388 483.21864
-144.98928 -5.3544708 485.46417599999995
-145.77760800000001 -5.80972968 486.429048
-140.022144 -4.46197896 483.86736
-139.01796 -2.15562456 479.561904
-139.04978400000002 -3.9807820799999996 482.26831200000004
-130.43044799999998 -2.8633334400000003 471.13257600000003
-129.707064 3.67408584 473.348376
-132.634152 -4.06982016 478.124496
-132.17140799999999 -4.36064472 480.944016
-133.64452799999998 -3.0627619200000002 477.617112
-135.918864 -2.54839752 479.946744
-131.631264 -4.72649832 482.39604
-131.090472 -3.21425928 483.051456
-133.741152 -4.27343544 480.87756
-134.097192 -3.39188976 479.442312
-129.09139199999998 -2.0890872 471.454488
-129.769776 -5.33639088 473.38257600000003
-129.860208 -2.45373624 469.988352
-134.420616 -6.0708772799999995 483.80644800000005
-129.286008 -4.57801632 474.348816
-128.141856 0.89757072 476.69111999999996
-126.73605599999999 -1.7387532 475.959816
-133.936056 -6.57828792 484.71372
-127.693944 -6.02091648 475.025688
-130.457376 -2.91711744 483.938064
-131.193936 -2.60980488 481.727736
-131.31036 -5.1307668 479.462832
-142.25637600000002 -20.2938048 490.369392
-132.134544 -6.18443928 485.90964
-135.498816 -6.5104344 484.70911199999995
-130.41216 -4.53626064 483.99768
-132.717024 -6.773657040000001 485.017416
-134.323056 -5.03278056 488.205144
-134.190648 -4.33275192 489.002904
-127.45476 -4.54293216 484.779888
-126.736344 -5.35632624 485.12390400000004
-130.01047200000002 -2.4366276 484.24449599999997
-128.94861600000002 -3.18620736 485.06436
-129.115512 -2.2890801599999997 483.535368
-126.73454399999999 -2.9386216800000002 481.34159999999997
-137.3202 -5.68595232 489.4308
-128.03508 -2.7679032 481.42224
-135.324648 -5.66515872 483.14973599999996
-138.305736 -5.039357760000001 483.66907199999997
-137.218896 -4.37578416 482.34088799999995
-135.652392 -3.98886264 481.068072
-137.657016 -6.54059376 484.915392
-139.84567199999998 -29.7422784 488.03868
-140.472648 -30.182709600000003 488.81908799999997
-148.34843999999998 -30.276035999999998 492.51024
-146.747232 -32.754708 488.27253600000006
-141.653376 -7.09174296 489.86107200000004
-138.141432 -7.105019759999999 486.691344
-138.995496 -6.69641184 485.643744
-139.44348 -7.02973656 486.60019200000005
-134.762256 -6.15519144 487.777968
-133.120944 -5.22345168 487.84744800000004
-138.360744 -5.51367072 492.97111199999995
-138.56796 -4.862306879999999 491.743656
-129.91932 -3.4340436000000003 487.12773599999997
-137.435976 -4.5066830399999995 491.122944
-130.43390399999998 -3.15319824 485.32248
-130.662792 -5.1010632000000005 485.498376
-136.23768 -4.89978144 489.22668
-129.693888 -5.48018712 490.26204
-141.11935200000002 -21.1803552 489.96252000000004
-135.221184 -4.91475168 488.57911199999995
-136.12644 -6.263703359999999 488.45397599999995
-138.305232 -26.067290399999997 488.07827999999995
-139.308912 -25.540056 487.86609599999997
-140.555304 -23.843685600000004 490.439592
-139.155768 -23.941180799999998 488.66803200000004
-140.160672 -23.035716 488.608992
-142.032096 -28.5766992 487.66139999999996
-140.29300800000001 -7.314055199999999 488.960712
-144.681552 -24.742692 489.16864799999996
-145.638576 -24.1170768 489.90153599999996
-141.738336 -24.124096799999997 489.060072
-143.298 -27.2459448 488.673432
-142.682976 -32.187016799999995 486.87422399999997
-145.67148 -29.870906400000003 487.426032
-144.176832 -31.4367552 486.89632800000004
-144.684864 -30.3139728 486.91454400000003
-151.9668 -28.328652 488.540304
-152.890128 -28.0460808 489.44325599999996
-143.800344 -32.6683368 487.219032
-150.797448 -30.940992 488.232
-146.982024 -4.68730224 493.449192
-144.533808 -6.172035119999999 486.47375999999997
-145.56974400000001 -4.504309200000001 484.546536
-143.841888 -6.79608576 487.432368
-152.534736 24.8918544 492.035256
-144.54547200000002 -25.342128 487.839384
-146.052576 -25.0891488 488.244024
-143.038224 -7.08128208 488.264976
-141.821064 -7.3202616 488.48342399999996
-151.275888 -4.65481584 494.44668
-149.00904 -4.98406752 486.38066399999997
-148.041648 -5.5102233599999995 487.366056
-147.034368 -6.0887635200000005 486.867024
-147.211344 -6.50094336 489.62793600000003
-147.0888 -6.30364176 488.21925600000003
-146.410272 -5.6165796 485.466552
-151.527744 -26.7935616 488.931696
-154.437048 -24.8664168 490.33180799999997
-155.815272 -22.2421248 492.57828
-149.07110400000002 -4.78884816 487.757664
-150.36184799999998 -4.60199664 487.191888
-153.441216 -27.854582399999998 492.059016
-151.298568 -28.5798384 492.892848
-156.370464 -22.568889600000002 497.15085600000003
-151.60392 -30.138890399999998 487.830816
-147.484008 -31.2734016 486.531504
-146.053368 -30.9227904 485.92015200000003
-152.731728 -29.3793624 488.86617600000005
-148.863744 -32.0489136 487.23508799999996
-150.395904 -29.137492800000004 487.68624
-151.304112 -23.721588 501.0732
-149.319864 -22.6060416 488.9106
-150.19596 -24.0107688 488.475792
-150.829128 -22.532133599999998 488.991528
-151.68160799999998 -20.2021056 490.340736
-150.010272 -21.064075199999998 489.21271199999995
-146.48032800000001 -23.584392 490.19688
-150.373872 -18.831823200000002 491.900112
-152.665632 -11.7977328 497.87870399999997
-148.212072 -20.8522368 488.984976
-151.508448 -5.736391200000001 496.525464
-147.447792 -18.6969672 489.54031200000003
-150.614208 -14.5000872 498.77733600000005
-146.56161600000001 -20.3835528 489.325896
-142.09812 -13.7979 500.79852000000005
-147.19068 -24.3272448 489.354984
-149.03676 -24.7250592 489.462336
-145.0746 -28.175687999999997 493.64539199999996
-145.112904 -30.726036 489.713688
-145.661904 -22.5637848 490.12106400000005
-145.31076000000002 -24.031439999999996 498.373056
-146.250792 -24.607036800000003 498.77078400000005
-146.774304 -30.0323088 491.9616
-145.307448 -26.6662296 495.647928
-145.507968 -24.748423199999998 497.260368
-150.33636 -11.795292 501.051312
-150.599952 -13.125312 499.541112
-148.056696 -17.203284 495.44388000000004
-150.41124 -15.2785224 496.616544
-151.50744 -9.5965128 498.50229600000006
-152.850168 -17.6186592 493.92972000000003
-143.70818400000002 -5.89969656 491.92488
-151.37964 -11.751062399999999 498.00765600000005
-150.487704 -4.9464187200000005 495.727488
-148.98132 -4.56825384 495.572544
-146.879784 -19.6697088 499.495536
-155.615544 -18.349984799999998 495.85104
-152.635392 -14.2891128 497.259144
-152.357832 -12.845203199999998 497.20608
-151.84908 -15.5695896 495.712224
-147.30998400000001 -28.030658400000004 495.647064
-147.33014400000002 -25.410722399999997 498.50964
-151.155432 -10.218348 499.261824
-145.642896 -20.503137600000002 498.37356
-151.337016 -14.232988800000001 497.632104
-149.00724 -15.7402224 499.78144799999995
-145.592208 -21.6013464 500.606784
-148.245552 -17.195076 500.01991200000003
-145.142568 -22.913179200000002 497.769768
-148.280544 -16.2078624 501.059304
-146.04228 -19.4643504 500.68404000000004
-143.6796 -12.9526416 500.72133599999995
-145.992456 -16.6477104 502.43335199999996
-143.983872 -11.8542312 501.44688
-144.873864 -14.7697632 502.74273600000004
-146.08512 -13.9368312 501.742512
-145.7136 -20.5636824 501.874128
-144.523728 -13.8526848 501.738768
-145.439784 -18.0807984 502.81394400000005
-145.978416 -19.980216 502.939584
-157.487976 -10.0942416 503.25537599999996
-146.853288 -12.397413599999998 500.85043199999996
-156.639888 -8.2152792 502.60226400000005
-145.55628 -11.3430816 501.607944
-147.769272 -13.834382399999999 502.17984
-147.642552 -11.1707136 501.73999200000003
-150.545592 -10.196013599999999 500.80068
-149.263056 -8.587065599999999 501.210648
-144.721368 -8.2677384 500.400288
-145.19592 -12.9294648 500.764032
-149.11495200000002 -9.8433504 501.890544
-152.2818 -9.3266136 497.906712
-152.27244 -10.4966208 498.599064
-151.881984 -8.3442816 498.84192
-149.1318 -6.942729600000001 498.708864
-152.315136 -7.4663208 498.014856
-152.636544 21.8861928 494.480016
-150.384168 -5.8699692 496.940904
-153.60336 -6.51631608 498.803544
-147.756672 -8.296416 501.07442399999996
-151.155 -7.4140704 498.167928
-149.139 -6.07012128 497.519208
-140.801472 -9.4399992 500.42433600000004
-143.118576 -9.7628616 502.702488
-154.54188000000002 -6.695568720000001 500.048784
-160.1892 20.0739744 502.369632
-164.98872 20.428884 501.32577599999996
-155.88036 -2.1542904 502.11835199999996
-156.50208 20.325168 500.443488
-145.87142400000002 -9.697464 502.754112
-161.939088 22.014 497.28643199999993
-162.25704 21.4370568 498.4056
-154.457568 -1.21738752 498.97519199999994
-154.54612799999998 18.6152256 499.11235200000004
-157.29767999999999 18.8282592 503.149968
-156.81225600000002 21.9541248 497.12896800000004
-158.819112 19.6780608 503.682696
-159.15672 20.7803592 500.80370400000004
-160.968096 20.6120808 500.681304
-162.317736 20.7508032 500.402016
-154.824984 4.09095936 501.86858400000006
-157.822488 21.012336 499.99420799999996
-152.82842399999998 17.695663200000002 495.342648
-153.791496 22.7418768 494.47872000000007
-153.562176 13.709606400000002 498.75854400000003
-155.99124 23.041598399999998 493.813152
-141.48504 -5.58362016 493.62372000000005
-139.132944 -7.1219541600000005 496.028088
-140.54976 -6.490982160000001 495.438048
-154.91232 -5.3435628 500.48892
-158.9328 21.189816 499.44275999999996
-155.655 -4.43773152 501.439248
-157.575096 20.4831504 501.16175999999996
-154.76414400000002 23.1747912 493.928424
-156.45765600000001 19.3699008 501.76504800000004
-158.25643200000002 20.1159216 502.258536
-157.84927199999998 21.4915752 498.636432
-156.284424 21.973032 498.673368
-156.475296 21.4410816 499.62967199999997
-158.69915999999998 21.91986 497.042064
-153.609624 24.200071200000004 492.52816800000005
-157.93704 24.413198400000002 492.042816
-155.092536 22.7603016 495.069336
-156.72880800000001 23.874825599999998 492.48043199999995
-153.956088 24.833052000000002 491.56761600000004
-157.0878 25.7465664 489.252456
-155.176848 22.485204 496.621224
-155.81484 25.335108 489.971808
-155.342232 26.3701224 488.939904
-160.451568 23.865458399999998 494.31967199999997
-154.209168 25.840454400000002 490.16959199999997
-154.961784 23.6654856 492.596856
-153.756 23.459724 493.3872
-153.648144 21.8959344 495.876888
-152.71992 1.1714832 495.501624
-149.824656 -3.63725712 489.12379200000004
-152.169264 -1.5541848 486.58557599999995
-154.121832 21.833712 497.669976
-156.472704 22.7579832 495.42069599999996
-153.08956799999999 -4.7896811999999995 496.676016
-153.496008 -2.835882 495.57031199999994
-148.304592 -5.55556536 490.13647199999997
-150.28956 -6.458572800000001 498.12969599999997
-151.18459199999998 -4.4236944000000005 490.35722400000003
-154.266912 -3.41787024 498.10103999999995
-147.51316799999998 -5.22477288 494.933472
-149.37976799999998 -5.29718112 496.56506399999995
-147.950712 -5.62863528 496.66694399999994
-152.343432 -6.145370639999999 497.455344
-146.207664 -5.488686 496.1196
-150.609384 -5.4510768 490.89751199999995
-153.180792 -2.98788264 492.25255200000004
-152.33356799999999 -4.88629584 495.097488
-152.000496 -1.38350376 489.973176
-145.689768 -6.72789096 489.07548
-145.717272 -6.59836296 490.328784
-147.049272 -5.25847032 490.88131200000004
-148.295664 -5.4056570399999995 488.982312
-149.36939999999998 -4.98912552 490.23266399999994
-148.867416 -4.816314 490.855392
-149.685624 -4.36301712 492.246144
-151.73064 -5.17618296 495.578592
-145.93824 -4.96517112 494.543664
-145.733616 -4.84370424 493.32103199999995
-151.299288 -5.27551704 491.70196799999997
-150.982488 -4.33439568 492.864552
-149.967216 -4.20469488 494.057232
-138.161664 -6.2254828799999995 494.206344
-148.106664 24.9686136 491.01796799999994
-147.43728000000002 22.400344800000003 491.09695200000004
-141.66921599999998 -6.6900708 497.24928
-144.504288 -5.53235976 495.44416800000005
-143.541936 -6.45221808 496.79315999999994
-135.303696 -7.2070272 495.398376
-139.9374 -5.30264088 492.511392
-143.89588799999999 -5.2429701600000005 492.95340000000004
-138.118248 -7.546154400000001 496.308888
-144.711504 -4.9858308000000005 493.746336
-139.659048 -6.012750960000001 493.890264
-143.412696 -5.50108656 493.89523199999996
-138.535344 -4.7974176 490.591008
-141.880824 -5.46018768 491.20725600000003
-143.094744 -7.0430004 490.731048
-141.246216 -4.91523912 492.14131199999997
-140.21539199999998 -5.974942319999999 490.20667199999997
-142.680384 -4.759910639999999 492.56928
-137.050344 -5.0769518399999995 492.10336800000005
-142.987032 -7.130843280000001 489.35772
-144.918 -5.27862888 492.63033599999994
-146.30371200000002 -4.97697912 492.289488
-138.744504 -6.64963704 489.39890399999996
-139.17218400000002 -6.61210776 494.926632
-131.364864 -8.867412 498.20450400000004
-144.369648 -7.01163576 489.926088
-142.978464 -7.1395452 497.93414399999995
-139.97484 -7.261567200000001 497.13213599999995
-138.070368 -6.94382616 495.37036800000004
-132.431976 -6.6709152 492.583752
-133.824312 -6.4550160000000005 493.16652
-136.84197600000002 -7.582211999999999 496.162872
-137.922336 -8.3953656 498.304728
-136.74996 -6.6293064 494.758584
-145.025712 -21.479313599999998 497.15459999999996
-138.695184 -7.7749416 497.176632
-133.390728 -8.6911632 497.926224
-130.74652799999998 -8.406086400000001 496.319904
-133.790256 -7.7414688 496.026432
-137.66436 -8.026704 497.068632
-132.246648 -8.1336888 496.439496
-133.80213600000002 -14.6635992 499.64054400000003
-128.009016 -15.4908936 501.375096
-128.979504 -13.309588800000002 496.500552
-138.654144 -24.6894336 488.219472
-135.294408 -6.429909599999999 493.947432
-133.921008 -7.0758338400000005 494.58708
-124.89789599999999 -9.9819864 498.043872
-128.99484 -8.0458272 493.74309600000004
-130.611312 -7.732476 493.337376
-129.646152 -7.3622232 492.19848
-135.241056 -5.50686816 492.30395999999996
-136.798488 -5.871888719999999 493.384752
-125.828424 14.766696000000001 496.74261600000006
-126.54597600000001 17.302118399999998 498.33403200000004
-135.54367200000002 -4.1840604 489.664224
-132.697944 -7.17956928 493.827408
-131.718456 -7.378113600000001 493.22455199999996
-127.79172 -8.210268000000001 494.761752
-132.633936 -7.570634399999999 495.09684000000004
-135.20397599999998 -8.0976816 496.92484800000005
-138.508272 -8.9001648 499.81816799999996
-136.484496 -9.9539928 501.186096
-135.1062 -8.8249032 498.854376
-141.044328 -8.4353904 499.35139200000003
-142.07068800000002 -8.657380799999999 499.942368
-145.042992 -7.427879999999999 498.910896
-139.407408 -9.7315704 500.995224
-140.36975999999999 -10.1085552 502.18948800000004
-140.560056 -11.3905512 501.89364
-143.349912 -14.213282399999999 501.579072
-139.5432 -13.855240799999999 500.671224
-137.880072 -15.264144 502.66512000000006
-140.48870399999998 -13.951987200000001 500.679288
-138.148416 -13.761576 500.18652000000003
-142.363944 -11.854512 500.939208
-133.693272 -15.151608000000001 501.165648
-135.390312 -12.7343952 499.423824
-134.68694399999998 -14.0137992 499.052736
-132.213456 -14.9158296 500.031072
-130.36075200000002 -13.6092528 497.480904
-131.50691999999998 -13.4066808 497.578392
-130.145832 -14.928911999999999 499.779144
-130.934592 -15.5303064 501.27912
-133.595136 -15.7373928 502.742664
-124.84353599999999 -15.9145992 501.90847199999996
-128.825928 -15.190632 500.181408
-134.963928 -14.7727008 500.433624
-136.000152 -14.7315096 501.276096
-136.28448 -14.014137600000002 499.88757599999997
-145.051272 -24.1735248 496.710936
-145.032264 -23.808679199999997 494.95651200000003
-136.403064 -15.070788 502.56504
-143.799984 -14.5988784 502.819344
-140.626368 -14.815468800000001 502.102584
-139.999968 -15.9052608 503.79530400000004
-135.77464799999998 -15.7257432 503.47360799999996
-132.426864 -15.901070400000002 503.505576
-139.2192 -14.948128800000001 503.07775200000003
-136.90656 -15.6713112 503.87774399999995
-133.41319199999998 -16.0966944 504.020448
-145.269072 -16.728249599999998 504.857376
-135.00936000000002 -15.2679312 502.21871999999996
-145.16244 -15.460379999999999 505.25179199999997
-145.080432 -19.6487928 501.9732
-144.431136 -22.1378688 499.243176
-134.60472000000001 -16.1826624 503.707176
-127.27080000000001 -16.7643 503.52624000000003
-142.311384 -32.2178184 487.91426399999995
-128.065392 -14.299459200000001 497.450016
-129.51396 -14.0613984 498.20767200000006
-139.761 -24.3283464 489.896928
-145.202112 -20.656908 489.09045599999996
-144.73389600000002 -21.1886424 495.365472
-145.383264 -22.6930032 496.16186400000004
-143.20231199999998 -19.4124888 489.921696
-143.079696 -25.5093768 493.529544
-141.981624 -22.2062184 489.12984
-143.638128 -23.4350712 490.319424
-139.799232 -21.8671416 488.87424000000004
-140.942592 -25.372785599999997 488.14466400000003
-142.63178399999998 -25.4033496 488.06186399999996
-144.173592 -19.6739352 488.9448
-145.719288 -19.1688984 489.150504
-142.512768 -20.272032 488.498976
-143.492616 -20.297707199999998 491.910336
-143.911008 -21.533472 489.235752
-141.584832 -20.2194216 488.98634400000003
-138.625272 -25.0575048 489.15432
-123.039072 20.8411632 476.66656800000004
-125.441496 -14.4984384 497.774088
-121.672584 -8.4055968 492.430464
-120.22977599999999 -8.8120296 492.64293599999996
-118.27684800000002 -18.1480536 495.02620800000005
-127.05264000000001 -14.842814400000002 498.343608
-119.20881599999998 -17.6069016 492.12583199999995
-125.11836 -2.27652192 478.621584
-116.048088 -16.3787112 492.361992
-117.405144 -10.378584 493.968024
-119.990952 -9.0942408 489.718728
-119.574072 -16.782048 494.661528
-116.47382400000001 -15.181696800000001 494.89776
-123.77174400000001 -14.030719199999998 497.13804
-116.36935199999999 -16.721747999999998 493.917768
-114.653448 -20.8979496 502.027056
-115.72847999999999 -12.7314216 501.29892
-120.19564799999999 -15.1923384 494.90517600000004
-125.032608 -13.022136 495.62510399999996
-118.78963200000001 -13.7378808 494.900208
-117.784872 -13.353264 493.0344
-120.533616 -14.688036 496.018872
-126.832248 -11.101932 496.64556000000005
-127.152648 -8.6359104 495.967896
-122.83416 -8.220600000000001 492.91610399999996
-122.323104 -12.1459752 499.05446399999994
-127.36008 -12.7389096 495.48564
-127.470672 -13.5257832 496.26432
-119.36735999999999 -15.267765599999999 495.512712
-122.67323999999999 -13.8129624 498.13444799999996
-121.64673599999999 -13.292676 498.08527200000003
-120.077208 -16.425108 493.380576
-119.638296 -18.3988368 493.73121599999996
-123.24038399999999 -16.3718928 501.97939199999996
-121.01184 -16.3009728 500.149224
-120.101976 -16.9872624 501.50556
-119.566512 -17.6212224 503.47231200000004
-117.04960799999999 -12.9378384 499.978944
-123.515064 -16.8786864 503.650944
-124.458984 -16.291512 502.91827200000006
-120.54304800000001 -15.0083712 498.297168
-123.41988 -15.375211199999999 499.47789600000004
-127.50494400000001 -15.110604 499.786272
-115.365888 -19.458144 501.734376
-116.635896 -19.5618312 502.331832
-115.73330399999999 -11.879481600000002 499.266144
-114.172056 -18.6219792 502.807032
-118.944216 -16.4603304 502.26933599999995
-116.44200000000001 -17.801733600000002 502.32743999999997
-115.381512 -14.1653808 503.91007199999996
-113.45508000000001 -12.7152648 500.078448
-117.449496 -16.196709600000002 502.98861600000004
-119.300256 -14.067993600000001 500.864112
-122.52506400000001 -17.4497904 504.555264
-125.22160799999999 -15.523459200000001 501.019776
-122.15988 -15.7644936 498.982968
-119.05955999999999 -15.2754264 501.302952
-115.562664 -15.9744096 503.09503199999995
-126.25847999999999 -15.7235112 501.73927199999997
-129.714912 -15.807816 502.207128
-120.37176 -15.948057599999999 501.187392
-116.360424 -13.372257600000001 503.13131999999996
-117.67392 -13.7332944 503.202672
-114.431832 -12.818692799999999 501.553152
-114.15866399999999 -16.1765208 504.18727200000006
-123.071832 -14.8317768 498.26160000000004
-123.946056 -15.737414399999999 500.76950400000004
-116.878824 -13.0627368 498.24755999999996
-119.473776 -13.801608 499.506048
-118.09987199999999 -13.787042399999999 498.95618399999995
-124.371648 -14.721119999999999 498.63996
-124.838352 -15.2299296 499.961952
-128.5776 -14.8577256 498.93220799999995
-121.262112 -8.4067632 491.372136
-120.23733599999998 -8.903448000000001 490.962384
-120.86834400000001 -8.796945599999999 490.22690400000005
-125.53502399999999 -10.745632800000001 496.479456
-118.6758 -11.8467936 494.221464
-119.216664 -12.0334464 495.649368
-121.53888 -9.034704 493.74756
-111.50078400000001 -8.6451624 495.308376
-115.18005600000001 -9.7449768 495.140472
-123.39237600000001 -9.5189472 495.66492
-118.203408 -10.2113928 494.56044
-118.49544 -10.2282624 496.21593600000006
-121.70412 -9.3694104 495.4284
-118.517544 -8.82558 493.233768
-115.64575199999999 -11.1123432 494.86975199999995
-115.31663999999999 -12.77082 494.44084799999996
-115.088328 -13.110084 495.66571200000004
-113.819832 14.5781352 503.517816
-114.07406399999999 -10.768968000000001 496.81303199999996
-114.277896 -11.8782216 498.412872
-112.901472 -8.4789864 501.75482400000004
-115.463088 -12.2645232 497.030904
-123.607656 -10.321416000000001 497.151792
-122.05749599999999 -10.7940096 498.07648800000004
-126.247032 -9.4259808 497.159064
-125.67232800000001 -8.873747999999999 495.595152
-124.70724000000001 -9.437270400000001 496.499256
-119.324376 -8.9326296 495.181728
-117.99871200000001 -11.746720799999999 493.30908
-113.94144 16.0074504 501.344424
-128.00268 -7.4027304 492.272928
-123.782904 -7.842808799999999 492.043104
-127.27224000000001 -7.812367200000001 493.51874399999997
-126.431136 -7.388388000000001 492.32160000000005
-125.764128 -7.758792000000001 493.425792
-124.286688 -7.9779744 493.24694400000004
-113.623632 -6.84342288 490.079808
-116.73122400000001 -8.4954528 493.347168
-119.198448 -8.530552799999999 491.71031999999997
-112.86684 14.078044799999999 504.53762399999994
-115.591032 -7.9634016 491.70088799999996
-123.47294400000001 -7.714195200000001 490.903416
-122.528088 -8.0282376 491.681448
-115.760736 5.156084160000001 489.01168800000005
-115.250904 2.60138376 488.503872
-113.927688 -9.274391999999999 493.83417599999996
-119.46362400000001 -8.428464 490.374936
-116.64395999999999 -11.491063200000001 493.95067199999994
-123.72948000000001 -7.235964 486.35272799999996
-121.69000799999999 -5.91307776 488.224944
-116.15925600000001 -9.4600008 493.92755999999997
-113.58792000000001 1.26683712 492.75518400000004
-113.391432 -0.5650261200000001 492.23656800000003
-113.914512 -1.1484302400000002 491.43938399999996
-114.903792 1.1549844 491.65883999999994
-115.42248000000001 -1.8002620800000002 490.09082399999994
-116.67564000000002 -5.81266728 488.06078399999996
-115.83684000000001 6.969218400000001 490.58783999999997
-116.05644000000001 3.6793022399999997 488.139912
-115.20021600000001 5.39354592 490.11300000000006
-115.662672 6.997062240000001 488.844072
-113.23699200000001 5.17832136 494.615232
-114.944328 2.57144544 492.12525600000004
-114.447024 4.6339308 493.857072
-113.32332 0.376043832 492.823008
-113.775768 0.186698952 492.18984
-113.364 7.9212527999999995 500.63889600000005
-114.028416 -2.2514853599999998 490.85244000000006
-114.719688 -3.0147415200000003 490.07440799999995
-113.79520799999999 -4.97033136 492.75468
-112.65256799999999 -6.3265341600000005 495.022464
-109.754928 -2.77368192 494.79768
-108.73548 -4.87195632 496.714824
-78.830136 14.9735736 496.41803999999996
-110.161296 -5.49198144 497.09995200000003
-108.44568 -4.2184872 495.05140800000004
-113.174784 -3.27491712 492.33556799999997
-113.556816 -4.3296861600000005 494.324928
-110.920824 1.82605464 496.85335200000003
-110.47456799999999 2.7127476 497.07936
-108.45396 0.666989496 497.06179199999997
-112.48106399999999 3.71868048 495.191304
-109.70409599999999 0.571725432 496.21392
-111.61583999999999 -4.40880552 496.00317600000005
-110.75119199999999 -0.36295884 496.013544
-83.264112 12.9994776 501.78837599999997
-109.16640000000001 1.14403824 501.39453599999996
-107.463024 -2.7270295200000003 498.253176
-108.030096 0.07176718800000001 498.453192
-93.794472 14.6689776 500.756616
-94.666104 12.8747664 504.17841599999997
-92.92211999999999 13.1025528 503.436456
-90.18252 13.6759608 502.002576
-80.75196 11.9702808 501.452568
-95.84985599999999 13.730104800000001 502.816752
-92.189232 14.0588424 501.75
-81.732024 12.9663144 501.012216
-109.153656 1.626444 498.589848
-109.686312 1.77485976 497.187216
-107.247384 -1.4713452 498.42770399999995
-107.875296 -0.669676896 496.923408
-112.35794399999999 5.39852112 497.82311999999996
-112.859928 2.04131448 496.265688
-110.15222399999999 2.8176984 498.02464799999996
-110.831184 3.93826824 498.743568
-110.81519999999999 4.13398152 500.42383199999995
-110.95149599999999 3.62497536 497.458944
-114.492456 17.9884368 498.351384
-111.809016 4.3134048 496.82311200000004
-111.496536 4.55098176 497.9952
-110.35454399999999 3.97095552 503.07336000000004
-109.33488 -0.016212096000000002 504.487008
-113.07311999999999 15.5593368 502.405632
-113.18544 16.7595984 500.11041600000004
-104.065848 13.8813408 503.76643199999995
-108.39326399999999 14.273402399999998 504.04248
-98.96205599999999 14.158425600000001 502.34868
-85.848264 11.4188328 504.667656
-97.502112 13.881240000000002 502.864776
-94.128912 13.8928464 502.41060000000004
-96.5034 14.935795200000001 500.51592
-102.225312 13.1043384 504.69048
-107.3466 -2.26152792 499.667472
-110.928312 -5.9777344800000005 500.320512
-108.081144 -3.96608256 497.207016
-110.17346400000001 -3.29318136 503.546904
-110.70633600000001 -7.6053744 501.240024
-111.417192 -4.0159461599999995 504.45446400000003
-111.53923199999998 -7.9621704 498.64363199999997
-111.815568 -12.2815728 498.82478399999997
-109.876392 -2.18238984 504.35208
-112.41784799999999 -1.90408248 495.87192
-111.673224 -5.73055128 496.03672800000004
-108.385416 -1.68455808 495.586728
-108.384408 -0.385226136 495.989784
-111.09715200000001 -8.3218248 496.584288
-110.66306399999999 -7.3645271999999995 499.887864
-111.072528 -6.69920472 499.176792
-110.62713600000001 -11.6545536 498.468168
-112.29624 -10.5192864 496.070064
-110.80836 -11.3197608 499.893912
-110.82405600000001 -9.4767768 499.598712
-111.793248 -9.1021824 500.4162
-111.680568 -6.931484640000001 503.04578399999997
-113.09666399999999 -20.5156872 502.56504
-112.135968 -12.5402472 500.560128
-112.18176 -8.1712224 502.290792
-114.30748799999999 -9.2253888 503.78414399999997
-112.094352 -7.801668 500.926176
-114.70413599999999 -12.657110399999999 502.88976
-113.299848 -11.6379432 501.669576
-113.043888 -6.18666696 504.4932
-111.068208 -7.922527199999999 500.033304
-112.655016 -18.688536000000003 503.67168000000004
-112.624344 -20.040436800000002 504.67399199999994
-114.886872 -17.448588 502.596864
-114.98911199999999 -13.244414400000002 503.02202400000004
-113.793984 -19.8456408 502.232112
-112.042872 -8.014334400000001 494.68751999999995
-110.7918 -6.71628096 497.698056
-112.73241600000001 -11.4397776 497.416536
-114.41642399999999 -5.33887992 489.27952799999997
-113.626656 -4.843784879999999 490.93704
-113.532768 -7.5372552 494.246232
-113.65351199999999 -6.3915912 492.40476
-113.38077600000001 -5.57496 494.179272
-112.797504 -8.9451864 493.785216
-113.60260799999999 -8.159162400000001 492.532488
-111.571848 -9.5477688 494.47346400000004
-115.98638399999999 0.010937664 489.277944
-115.900272 -5.3837186400000006 487.50386399999996
-116.36920799999999 -4.606524 486.233208
-119.24352 -3.85012152 481.42303200000003
-117.66758399999999 -3.1633689599999997 482.05202399999996
-116.069472 -4.24558512 487.725048
-116.231328 0.20448864 480.537216
-115.735464 -0.77866488 481.50108000000006
-116.671968 -2.55971376 479.40559199999996
-115.770528 -1.79582616 479.00073599999996
-122.090256 -3.8285992799999997 484.31152799999995
-118.079568 -2.56488336 478.88899200000003
-116.29835999999999 1.07211672 481.82500799999997
-119.06359199999999 1.7894606400000002 476.77982399999996
