# .PCD v0.7 - Point Cloud Data file format
VERSION 0.7
FIELDS x y z
SIZE 4 4 4
TYPE F F F
COUNT 1 1 1
WIDTH 1057
HEIGHT 1
VIEWPOINT 0 0 0 1 0 0 0
POINTS 1057
DATA ascii
-26022.774505 1941.2003037 43.609935047
-26024.715808 1941.7243482000001 43.810477850999995
-26031.525037000003 1930.7029007 43.739318847
-26040.839006000002 1938.8337612 44.627732036999994
-26032.454300999998 1939.7827148000001 43.631923201999996
-26031.241992 1938.554716 43.554234507000004
-26031.893538 1933.2109692 43.888416887
-26031.760027000004 1937.3325587000002 43.711093069
-26034.382247999998 1931.3926695 43.850073218
-26030.478285 1937.6551628 43.699890374
-26029.394152999997 1933.4077357 43.81965696500001
-26034.262086 1932.9504488 43.879508974
-26031.727981 1936.2444164 43.85866821
-26030.798724 1936.590719 43.819594385
-26035.920337 1933.8172909999998 43.759950997000004
-26034.347535 1935.4535102000002 43.8021332
-26039.271545000003 1935.3954311999998 43.797314169
-26030.841445 1931.8799976 43.817633391
-26037.858966 1935.3363511999999 43.552064899
-26036.112592 1934.6908091 43.746557834
-26043.298337 1929.0852069999999 54.222139713
-26037.239459 1936.2936495000001 43.652388451
-26036.702727000004 1935.3648902 43.783420324
-26038.214110999998 1932.5609205 43.699076771
-26039.04457 1926.5667918000001 47.642633318
-26038.451768000003 1936.5536687 43.685871362
-26036.417008000004 1937.0233057 43.45802069
-26036.304853999998 1936.0852000000002 43.646818397
-26039.666750999997 1936.8016717 43.888166546
-26040.219499 1937.9009965 44.122338295
-26038.307568 1934.0035441999999 43.611875174
-26034.475705 1942.4389838000002 43.55955422
-26040.160748000002 1935.9767196 44.579875466000004
-26038.996508 1938.0064725 43.587654830999995
-26035.607913 1940.6518935999998 43.559491633
-26037.722781 1938.8300897 43.483096363
-26038.091275000002 1946.1797236000002 43.636220691
-26032.136535999998 1946.2955476999998 43.403112886
-26031.266022999996 1945.2247619 43.297407034
-26029.575726 1943.5141089 43.508547544
-26031.760027000004 1947.6565598 43.344783783
-26034.806826 1941.4299485 43.543240426
-26036.080553000003 1946.3486196 43.509340287
-26029.079055 1938.7387992 43.632528184
-26032.531735 1948.7046481000002 43.527531621
-26031.850817 1942.9635288000002 43.556633589
-26035.5011 1945.4265355 43.585380909
-26028.828049 1944.150138 43.390199545
-26031.26869 1941.6417363 43.554505708
-26030.806732 1943.8829424 43.428146839
-26037.546541999996 1948.2158184999998 43.298241497
-26037.541201 1942.9131267 43.672853707
-26037.055205 1944.6816921 43.629002571
-26034.214017000002 1947.0490697 43.596187236
-26038.977811 1946.4415789 43.629774454
-26037.068561 1949.0679739999998 43.281656502
-26031.23131 1949.2185118 43.471664187
-26034.232714 1951.4760734 43.351835009
-26034.694672 1954.3504715 43.340924382
-26031.223295 1950.885272 43.444085118
-26028.157806 1956.191468 43.424454332
-26033.621215 1954.2780397000001 43.529888989999996
-26030.502316000002 1954.5470713999998 43.27927828
-26028.83339 1955.4189207 43.459376694999996
-26043.784333 1950.3695729 43.284097311
-26038.09929 1950.7986547 43.554776909
-26036.79085 1953.5792591 43.355715277
-26042.534636999997 1954.5215368000001 43.42393279
-26044.208910999998 1953.2129288 43.525111672
-26051.586911 1954.245496 43.349811435
-26047.266385000003 1952.6338097 43.568983675
-26041.196825 1950.5573276 43.510466811
-26047.477344 1951.5678644 43.573093417
-26036.320877000002 1949.3692162000002 43.443605303
-26054.863359 1945.5091474 43.951606748
-26043.893813 1946.4499236 43.677839639
-26040.168762999998 1932.7805518 43.568900228000004
-26043.439863000003 1944.1963673999999 43.86229813
-26043.626784 1932.4162242000002 51.268237832
-26036.190033 1948.3999016999999 43.344074487
-26047.116851 1944.2963364999998 43.554401401
-26040.021896 1946.7908859 43.5451597
-26038.251497999998 1949.3203163 43.392118812
-26039.228823999998 1947.2715381 43.563309314
-26045.026014000003 1946.8381163 43.789720534
-26052.996822999998 1948.0589387 43.544137475999996
-26077.368548000002 1951.1805061000002 43.766251206999996
-26048.649598999997 1947.1750739 43.454098701999996
-26052.03552 1947.0699310999998 43.622118232
-26049.765777000004 1947.2695354 43.431568145
-26051.450726 1942.8331853 43.82084608299999
-26049.122239 1946.1892366 43.451908234
-26055.693818 1944.8060275 43.781480189999996
-26051.311874000003 1959.5396758 42.9864645
-26052.382657 1958.9785817 43.108922241
-26050.657654 1946.3015558 43.502497675
-26060.748671999998 1951.8018485 43.304207919
-26053.362657 1947.0021725 43.576076627999996
-26058.567045 1947.9426147999998 43.400129675
-26059.498976 1947.7763893000001 43.433529139
-26046.540072 1950.572848 43.667533993999996
-26055.533602 1946.5248586 44.089835881
-26054.155729000002 1947.7168081 43.559116125
-26051.570895 1953.0276772999998 43.423244354
-26048.713684 1952.4866102 43.378955123
-26056.617734000003 1950.9900809 43.500640988
-26049.731064 1949.0028859000001 43.406972287
-26037.522503999997 1951.8589258000002 43.71945858
-26043.033982 1951.6319515 43.371236321000005
-26058.059692 1953.0428645 43.403404953999996
-26058.118436 1951.6287805 43.393161896
-26081.665036 1948.4728332999998 43.435177205
-26080.634307 1947.5842953 43.506669997
-26062.284087 1946.9938278 43.714347481000004
-26060.099793 1944.1684962000002 43.718352916
-26059.322737 1944.8821308000001 43.716141581
-26070.850372 1945.8237407 43.592223528
-26051.394656 1950.9114743999999 43.66553128
-26057.181171000004 1949.7522352 43.299430608
-26058.727261 1946.898198 43.712261319999996
-26064.262769999998 1947.8663442 43.647402526
-26061.488341 1947.7939130999998 43.488353489
-26060.513689 1947.7069619000001 43.453618887000005
-26052.182387 1951.1978626 43.726468086
-26054.430773 1915.5935764 69.577610494
-26068.642047 1950.6180764 43.436282876
-26074.471283 1951.5666961000002 43.195560576
-26069.330980000002 1949.4855401 43.43380034
-26064.60724 1950.0459671 43.822285535
-26063.189313000003 1947.9471207 43.664196135
-26056.462859 1946.3659761000001 44.10291612300001
-26055.039598 1944.0486667 43.85301470899999
-26053.116992 1942.5289394000001 43.890920283
-26051.440051 1943.8796040999998 43.703770635
-26045.642853999998 1941.9865367000002 44.105064870999996
-26046.751024 1941.4579869999998 44.382733108000004
-26047.11151 1942.3742296 43.856832383
-26059.763338 1943.2594299999998 43.708318472
-26058.823392000002 1942.7413943000001 43.813335895
-26048.451996000003 1942.5239322999998 43.620970848
-26058.599091 1940.935612 43.969297407
-26076.765057 1953.9095401 43.426123258000004
-26074.313734 1945.5902578 43.950375917
-26088.052368 1948.0519296 43.866470459
-26087.638472 1949.3353369 43.606764075
-26076.372525000002 1946.0874321 43.841144445
-26085.005569 1947.5542548 43.39969158
-26060.503007 1950.626755 43.354067204
-26084.105684000002 1947.7772237000001 43.278193476
-26077.592848999997 1944.1189292000001 43.550103905
-26075.787738000003 1941.0335777 43.896803258000006
-26094.533156999998 1942.9600239 43.652763965999995
-26089.630511 1951.2028696999998 43.235990406
-26092.893603000004 1938.0071403 43.739360573999996
-26085.237885 1946.5028289000002 43.577390906
-26046.035385999996 1936.4642143 50.573316213000005
-26043.381119 1940.9666535000001 45.273065564999996
-26042.967223 1930.4193496 64.112553001
-26045.202253 1931.9540975 61.54911816199999
-26043.397141999998 1932.5133562 56.357514857
-26043.242267 1926.589322 55.86991608100001
-26042.545319 1930.1683429000002 60.045391322
-26042.865750999998 1930.7718276 58.769848942
-26043.092726 1931.5412046 59.316152335999995
-26040.334319999998 1924.1999147000001 56.351047753
-26043.066027999997 1931.1882254000002 57.619580627000005
-26043.095400000002 1926.1599063 60.488763454
-26038.091275000002 1926.2662174000002 54.07099723900001
-26038.093949 1925.9736537999997 54.95976507699999
-26039.172747 1926.2391806 54.848071936
-26042.892456 1931.8583011 60.140770675999995
-26043.063354 1930.6595084 56.856629249
-26043.399809 1931.7913769 58.490303158
-26088.920214 1927.7901173999999 46.509116885
-26084.447480000003 1930.691385 45.275339487000004
-26086.30066 1930.491948 44.541239736
-26043.429181 1932.2361471000002 57.431805137000005
-26043.896487 1933.5000278999998 55.784988406
-26043.434521999996 1929.7050479 55.230590702
-26043.015291999996 1931.489301 56.656065585
-26044.33174 1934.5342639 53.775992990999995
-26043.362429 1931.473446 54.047924280000004
-26043.677519999997 1934.3338251999999 52.846398948
-26047.829822000003 1941.4322851 43.92298460200001
-26045.252989 1933.9856865 55.850973724
-26043.621443 1933.0626014 52.54667997599999
-26039.386366000002 1941.5462731 43.621054295
-26042.291639000003 1940.6332015 45.41271329
-26045.001983 1935.5711697 52.030292153
-26042.895123000002 1930.9495688 50.815415384999994
-26039.402389 1928.3692358 53.166124227999994
-26043.322375 1928.7337300000002 56.063553692999996
-26043.538668 1930.971098 52.691313626
-26043.266298 1928.446674 54.911011456
-26043.087385 1930.1636697 57.580068706999995
-26043.234252 1925.4673003999999 54.810687896999994
-26043.162151999997 1930.7234289 56.00455701400001
-26043.458560000003 1930.1514862 53.887519238
-26043.383786 1929.7642945 52.607178687
-26044.972611 1937.046671 48.316588999
-26038.967136000003 1924.1515160000001 56.658673288
-26043.258283 1928.1245711000001 53.876525164
-26043.031308 1926.461649 57.00958669
-26040.89775 1931.6313268 48.370391132
-26035.295489 1923.1546642 52.575969698
-26041.17012 1929.8312187000001 52.171128988999996
-26037.832260999996 1927.8710604999999 43.843147159000004
-26040.529249 1919.864702 44.954383376
-26040.900424 1932.2424891 50.02329945899999
-26043.164826 1934.2835903999999 49.218270185
-26041.455839 1940.2163032 45.265534517
-26044.593428 1936.6486313999999 49.252858759999995
-26047.063447999997 1937.9874465 45.273837448
-26041.554644 1940.8693549 44.710177183
-26040.665434 1930.0738814000001 47.442653776
-26043.517303999997 1931.1798813999999 51.251173022
-26043.992617999997 1938.2821801 46.630677583
-26042.919161 1938.0084752 46.187263724000005
-26041.640092999998 1933.7532046000001 44.935211538
-26040.975191 1930.9717658 47.453960778
-26059.816741 1937.2182367999999 47.199156879
-26039.792254000004 1930.338907 43.977704645
-26041.191484 1930.6039332999999 44.190806149000004
-26042.094043 1927.8854133 52.864006159999995
-26039.888385 1933.4888460999998 43.692150712
-26040.625379999998 1933.8306427999999 43.982857464000006
-26035.204699 1934.5127347 43.68355572
-26039.140701 1928.1450986 49.833291767000006
-26040.513226 1929.2505981 46.88773453
-26039.850997999998 1928.4383300000002 47.506093977999996
-26042.534636999997 1927.1033522999999 53.296884893000005
-26038.566589000002 1927.277422 49.551180007
-26039.744185 1929.0313007 50.033563377
-26041.610721 1921.214533 45.499372485
-26041.001889 1920.7619193 44.826063513
-26039.089965 1926.4895201999998 43.980312348
-26043.354414 1935.4623554 48.752680424
-26041.760254999997 1938.7261151999999 45.197483898
-26045.298384 1936.0100984 51.307582857999996
-26083.507541 1941.1762713 43.496927621
-26086.217878 1939.0523907999998 43.521919847
-26042.366406 1943.6728241 43.854412434000004
-26043.314359999997 1930.9430602 54.963874819000004
-26042.67883 1936.8914607 46.413466337
-26042.547985999998 1932.5278756 49.647352097
-26042.630768 1938.0325076000001 45.179688932
-26040.099337 1934.853697 44.470185039
-26042.654799 1933.4477904 49.019917848999995
-26043.274306000003 1918.4532878 89.99386129999999
-26088.845447000003 1950.2043484 43.353462222
-26094.434359000003 1945.8352564 43.400442603
-26072.241594000003 1940.0645971000001 43.853515384
-26073.210905 1940.4991865000002 43.940591814
-26064.583209 1946.9521043000002 43.688416478
-26072.551344 1938.247633 44.797107579
-26071.368406999998 1940.2583599 43.746203186
-26061.314776 1939.8329496000001 44.303396346999996
-26053.800583999997 1944.8350670000002 43.681177498
-26050.561523 1936.4768983000001 47.17821180799999
-26049.875257 1936.1434463 49.036878345000005
-26047.541429 1936.1164095000001 51.419734954
-26083.197784 1936.4845751999999 43.351709842
-26039.941788 1940.4439446 43.592473862
-26089.908215 1937.9220245 43.451699612999995
-26092.736053999997 1934.7882749999999 44.047904012
-26047.044750999998 1938.8374327000001 45.045027139000005
-26042.609404000003 1935.1157188999998 45.856982472
-26054.462811999998 1938.0550385000001 43.762913348000005
-26037.557217 1941.9963836000002 43.687519428
-26040.529249 1944.9897767999998 43.657749891
-26044.272996 1943.7512633 43.737545607
-26039.202119 1933.1655742 43.604573607
-26082.850647000003 1903.4063818 45.277029273
-26078.591539 1896.0799459 46.555972099
-26072.270966 1904.7223328 45.90986668800001
-26074.941256 1902.4360656 46.153384445
-26086.044313 1902.5625703 45.743077996000004
-26073.050689 1903.8309577000002 45.433261993
-26084.962848000003 1904.0851354000001 45.734211802999994
-26071.323012 1901.3976576 46.551862357000005
-26070.481871 1903.3469679 45.484393835999995
-26081.763841 1902.6299949999998 45.795899632
-26070.121385 1906.7744493 51.710942388
-26087.224576 1902.226949 45.806518198
-26080.944064 1903.218961 45.737090707
-26074.140169 1901.5089751 46.166589854
-26083.659742 1902.5896071 45.830154418999996
-26041.167453000002 1921.6374394 44.996649026
-26040.625379999998 1922.3959685 45.263719556999995
-26040.903090999996 1922.650814 46.160164477
-26069.013215000003 1938.8053894999998 44.638413189999994
-26068.735503999997 1941.9301272 43.589803579000005
-26041.431808 1924.7032643999999 55.00922799400001
-26100.50926 1900.1668217 45.33533752300001
-26099.043271 1902.1264793999999 45.839291813
-26077.811816 1902.7853726 45.82685828
-26071.937178 1933.0632685 48.843824862000005
-26078.028109000003 1926.2715577 51.618421078000004
-26079.576873 1934.2228416 45.968988541
-26076.393889 1900.8464097 46.135172251
-26100.033953 1884.0875151 46.300896998999995
-26094.84024 1897.9206084999998 45.744663475
-26071.007921 1902.3587939999998 46.229988336000005
-26084.338 1904.7508718000001 46.124532818
-26081.187055000002 1900.3806115 46.029174331
-26103.564074 1902.1276477 45.588201281
-26104.301069 1901.3449188999998 44.49920356
-26083.163071 1904.6280385999999 45.956763622000004
-26083.710478 1903.6270141 45.271751287
-26074.449919000002 1898.6013648 47.4419862
-26075.659561 1899.5816945 46.701210738
-26062.676618999998 1904.5541046 46.154323222
-26061.528394999998 1904.531741 47.075134519
-26070.695496999997 1901.6174555 63.441580531
-26071.13075 1904.4704917000001 45.685186981
-26061.35483 1906.6110609 47.419372203
-26066.991803999998 1905.0577881999998 45.931187274
-26033.08449 1914.0645027 44.249886275
-26035.794827 1923.1323006 56.99644386800001
-26063.151933 1910.0750921 51.93416178299999
-26061.629866999996 1909.0396878 48.777380589
-26064.014438000002 1908.2150695999999 48.409444097
-26070.153424 1908.4490537 67.542997004
-26070.679474 1907.2716235999999 67.526474596
-26061.77406 1907.8186988 50.375840067
-26030.79605 1914.9330137000002 44.505774978000005
-26033.460999 1915.2207375 44.061860444000004
-26027.957536 1906.2013390000002 45.70821822
-26026.916125 1905.9575080000002 48.356580734000005
-26062.286761 1906.5621617000002 46.564108135999994
-26032.224651999997 1917.3965216000001 43.998566269
-26025.089643 1917.0183417 43.931517007
-26026.88942 1918.102312 44.132497906
-26033.971026 1914.0650032 46.388578418
-26034.227373 1917.1288255000002 44.032299521000006
-26029.792026000003 1913.0047321000002 44.156467915
-26023.289873 1917.6089765000002 43.352565172
-26034.003065 1920.3226567 43.983858821
-26033.201977999997 1919.8027849 56.008332968
-26028.590392 1920.2308657 43.960618974999996
-26025.335315 1918.3306219 44.154131412999995
-26028.499602000004 1906.6360949999998 44.307214021
-26029.981614 1916.1121133000001 54.98844980999999
-26031.380844 1917.5992969 53.774031997
-26030.558393 1916.6673659 44.282346962
-26036.008453 1915.8662796 45.883142948999996
-26032.003018 1921.0466387 44.099849465
-26030.924227 1916.3953305 57.984617355
-26024.833295999997 1912.8021241000001 44.281595946
-26029.340743 1907.0156098 44.7363168
-26029.639818 1908.3444121 44.247800114
-26026.048279 1920.2590701000001 43.98711324
-26033.242032 1913.0401135999998 44.732874634
-26028.083038999997 1912.6232146 44.180813432
-26029.193875999998 1912.1484039 44.197586181
-26030.929567999996 1912.9743577 44.174951317
-26027.16179 1911.9968651000002 44.215756655
-26017.449947999998 1911.3177776 44.204595687
-26024.865341999997 1910.6899259000002 44.328159092
-26022.323229 1913.8215068000002 44.234782459
-26023.519515000004 1910.2264642999999 44.205138089
-26020.600893000003 1907.0793629999998 43.847298621
-26023.890683 1912.528086 44.335418939
-26024.76387 1909.5186712 44.186592100000006
-26023.639677000003 1909.030676 44.033968447
-26021.564863000003 1906.6524505 44.048696754999995
-26021.337888 1910.907054 44.310718773999994
-26031.007002 1911.119175 44.725155832
-26064.049151 1904.5422557000002 45.891904828
-26028.336719 1911.4756584 44.399526717
-26029.917529 1909.9719527 48.056611421
-26028.400804 1910.3678223 44.541844725000004
-26022.114944 1889.574456 53.038722275
-26037.551883 1917.6597118 44.27996874
-26072.241594000003 1902.2885322000002 46.017721294999994
-26066.668697999998 1903.9429423 45.946958658999996
-26064.730069 1905.8510303 45.945894715
-26024.606321 1908.3353996 43.953505155
-26027.095031 1909.2346189 43.829190734
-26022.632978999998 1905.3453447 43.699681760000004
-26021.586227 1897.2553733 53.553149104
-26023.647692 1905.5599689 44.45514381
-26030.149837999998 1917.0125008999998 55.248114467
-26024.833295999997 1905.6480884 44.811481238999995
-26023.327253 1887.1414898 51.696506141
-26024.374005 1887.4153612999999 52.46156454
-26020.726396000002 1882.9531434 45.48090994300001
-26029.338076 1881.184578 45.244318244999995
-26032.312775 1884.127903 45.94902396
-26024.584964 1887.6727107 49.83921646900001
-26024.806598000003 1887.4630929 48.617559669
-26023.925402999997 1883.1385615 45.994043346999995
-26029.030993 1882.4653148 45.521840454999996
-26026.878738 1879.3991566 45.235806707
-26025.151060999997 1881.6445354 45.575225353
-26028.403471 1883.7814331 45.415091512
-26018.285748000002 1882.8636883 44.37071681
-26022.667692000003 1883.8942528 46.017324927
-26022.400663 1881.4928293 45.462217927
-26024.013519 1884.1145512 46.123197673
-26017.359158000003 1890.8917426 56.227359174
-26025.839994 1888.4504317 54.234009984000004
-26027.551648 1888.2812024999998 53.667512535
-26022.069549 1900.9715795 51.896443962999996
-26023.297881 1894.9672699999999 55.507445335999996
-26024.155045 1898.7735983999999 64.131975173
-26024.825288 1897.7210042000002 60.517886282
-26021.332546999998 1900.5157947999999 62.710693479
-26022.317888 1899.3543863 63.995602727
-26020.761109 1899.9748943000002 63.56163919
-26022.814559000002 1894.7609898 58.028677105
-26024.480818 1896.5026857 56.625357271
-26023.669049 1898.8575458999999 65.916624662
-26024.360656 1898.629236 64.946705103
-26024.860000999997 1898.0971814 64.163976905
-26028.438184 1900.0930549999998 71.14650907
-26024.678421 1896.5557575999999 60.062685606
-26024.974822 1897.6470709 59.345504645
-26021.460724 1906.4501764 55.471938851
-26026.876071 1908.7027309 51.913112405
-26025.370028 1891.5930271 58.755725623
-26026.713181 1891.9239759000002 58.448725937
-26024.131014 1895.8344461 55.990538002
-26029.249953 1891.8991091 59.463185075
-26025.572965 1887.8077267 52.307251094
-26023.722458999997 1890.3429986 54.963478444
-26025.503539 1890.1030064 55.713641640999995
-26027.674484000003 1889.8650169 56.145790218
-26028.387447999998 1888.3626461 54.30183112900001
-26027.976226 1887.9198793 52.544781569
-26027.565004 1887.8654718 54.653432967
-26028.502276 1888.1134748000002 55.226105452
-26037.965771999996 1917.4769642 44.84682083
-26038.55324 1918.1497097 44.61233616
-26076.110837 1890.3476718 47.111809255
-26074.626158 1885.5508329 46.918901799
-26076.292416999997 1887.8771541 46.671754122
-26069.9131 1885.9258411 45.627295973
-26069.672776000003 1886.1251115 44.602677224
-26076.129534 1886.6668464 45.359849927
-26076.997373 1899.9773982 46.662825349
-26076.465989 1889.2872333999999 47.04246521099999
-26075.267029 1887.1937272999999 47.494578362000006
-26078.527454 1898.0391024 46.593147517000006
-26081.41403 1888.2266284 46.035620568
-26076.714328000002 1898.7871168 46.868687866
-26078.799817 1900.6251096 45.772430298
-26075.098798 1895.6625464 48.21956157899999
-26076.473997 1896.9245911 46.945124863
-26077.566144000004 1900.9343626000002 45.738363265
-26075.040054 1900.905657 46.230697631999995
-26073.093416999996 1901.3095380999998 46.30652964
-26080.231093 1897.5714681 47.168239951
-26079.317859 1897.0684529999999 46.840670702000004
-26078.59688 1895.0160026 46.362626555
-26076.39923 1891.4431571 47.127851841
-26077.267076 1890.4755114000002 47.12482691
-26077.985381 1889.6540642 46.853521463
-26077.862552000002 1891.5319444 46.939387915
-26072.96524 1887.2977018000001 47.97009826
-26073.80104 1887.9599333 47.873029113
-26075.766374 1885.3792664 45.135566595
-26073.403167 1885.9049797 46.665766833
-26073.45657 1886.2103938999999 47.941684721
-26033.834841000004 1883.8381765000001 47.697353361
-26038.163375 1882.9963684000002 46.922677753
-26069.013215000003 1886.3268850999998 46.572348473
-26028.056333999997 1886.6102696 47.284668683
-26069.54994 1886.1943723 48.898231984000006
-26073.603436999998 1886.1045840000002 47.455358503
-26022.197726000002 1884.903622 46.927475931
-26033.618548000002 1885.2657795999999 49.820712207
-26046.152881 1884.0357780999998 49.79365468
-26029.856111 1908.8761328 45.233115557
-26034.6653 1882.268381 47.292700413000006
-26075.507353 1886.1139297 47.165757414999995
-26087.157824 1947.1336843000001 43.765792252000004
-26058.615114 1887.9547596 64.209747315
-26045.338438 1917.5166843000002 88.46918941
-26079.630283 1937.8764629 44.045963885
-26049.498748 1937.6284598999998 45.905110236999995
-26047.469328999996 1936.243582 47.694015502000006
-26059.464263 1902.3663043 70.9125459
-26063.520434 1889.6330355 56.833451982999996
-26054.740522999997 1879.6451568999998 47.507929804999996
-26047.415926 1885.795331 57.915586232
-26058.946227999997 1888.7722013999999 60.251796248
-26059.672548 1889.1830923 58.372998236
-26059.114459 1888.4879825 58.62168967899999
-26049.423981 1886.9831084999998 60.540875794
-26052.930071000002 1894.8093892000002 70.88240089
-26069.806287000003 1896.6695782999998 68.868628143
-26053.293230999996 1896.2076189 70.4917878
-26054.628369 1897.1091748000001 69.53131854200001
-26049.867249 1894.7508096999998 70.30906078
-26047.170261000003 1885.2132082 56.339824198
-26048.390578 1885.2874754000002 56.748253107
-26046.019363 1887.2334481 58.486694098
-26055.680469 1897.8284836 71.38314246
-26048.574832 1898.5140797000001 67.679682371
-26049.306486 1897.6585866 67.356723546
-26071.141432 1900.6790159 66.561979057
-26071.939852 1900.559521 65.929183362
-26067.926409 1893.7726499999999 68.255609275
-26057.784654999996 1899.1878269 71.40548527
-26062.799455 1898.9266393999999 70.62523958
-26055.146410999998 1898.5292676 71.31713631
-26045.362476 1898.4563352999999 67.75394976
-26054.278565 1896.9928502 67.796590925
-26062.73537 1902.5271895 69.333571195
-26061.178591000004 1897.9703428 71.82090279
-26052.299882 1899.4717119000002 70.0592011
-26047.076796999998 1899.1876603 67.986494303
-26047.530747 1898.3401772999998 67.869919537
-26055.127714 1898.3350036 69.301006201
-26054.099651999997 1902.1306514 71.03765312
-26063.173297 1903.4404277 69.048288463
-26052.195742999997 1898.5265971 66.780462861
-26068.286894999997 1899.8800995999998 69.003143909
-26050.473407 1900.6696702 67.70680248500001
-26071.269609 1897.1498966 67.23236739800001
-26067.85965 1890.2692319 55.583819745999996
-26050.347897 1896.8107696999998 67.805060743
-26048.134231 1897.4629876999998 67.838460207
-26069.496537 1889.3162729 56.028339269
-26068.206787000003 1895.4185487999998 69.582763313
-26060.764695 1888.5942936000001 56.71762824
-26055.223845 1892.6299336 69.805106518
-26054.492190999998 1892.7384140000001 69.419687988
-26065.045167 1904.2875768 68.889614941
-26065.37094 1905.1073552 68.462577463
-26070.623397 1896.2403299 67.860573529
-26070.425794 1894.9898002 67.242360115
-26060.441589000002 1902.7451513 70.63448133
-26064.64462 1900.3726006999998 69.167762993
-26063.581845 1901.5506986 69.087341428
-26072.025301 1885.2621081000002 48.161733151
-26062.161258 1886.5049602 53.022408488
-26068.070602 1899.793315 59.974962473999994
-26067.557908 1902.4667739 58.030283451
-26062.644579999996 1888.788223 55.379688742
-26062.033081 1888.1817339 55.268537996000006
-26071.264268000003 1886.1027479000002 51.800230146
-26071.723559 1887.0398519 51.112860442
-26070.636746 1887.0228293 54.16829586
-26032.950972 1884.7140312000001 47.312039137999996
-26031.898879 1885.9922648 48.445159196
-26068.193438000002 1886.4679099000002 46.473860741
-26070.981215999996 1883.4019183 44.435700771
-26073.509980000003 1882.2924134 44.047549364
-26065.856936 1880.4278849999998 46.619620921999996
-26063.296126 1882.7063087 46.917003392000005
-26072.468569 1882.9499724000002 44.672605397
-26071.445848 1882.4734928999999 43.78417134
-26052.281192 1879.3839694 47.16840684500001
-26050.056837 1878.1541345 46.745771170000005
-26072.286989 1878.2022 45.338383314
-26074.084091999997 1874.8307942 45.423164962
-26065.987779999996 1879.0413383 47.140890363
-26074.652863000003 1881.5756085 43.610018494
-26075.963977 1881.4919949 44.318187235
-26073.643491 1883.7961198 46.135193111
-26070.975875 1884.3905926999998 45.092445615
-26062.989042999998 1879.9530743 46.772328021999996
-26065.589906999998 1887.2758387 50.949409602
-26053.907397000003 1880.2000763 47.857445475
-26055.568315 1880.5949449 47.45542109
-26062.187956 1887.2027397999998 54.840436581000006
-26061.090468 1886.4370343 55.381524561999996
-26061.317443 1886.6463182 53.879779576
-26048.585507000003 1889.2860650999999 68.546482921
-26032.091140999997 1888.2094384999998 60.816708204
-26035.976407 1879.700732 46.814197304
-26041.835022000003 1887.3844864 63.079735635
-26068.054579 1879.5186522 46.44490480699999
-26068.348313 1878.2245636 46.61726355300001
-26067.312243 1878.687692 46.892887356
-26063.819502 1879.3480874000002 46.698644755000004
-26053.635027000004 1879.0351629000002 47.380486131999994
-26055.442812 1878.821707 47.25800752400001
-26051.773832 1886.0531809 58.989834785
-26066.049191000002 1898.915291 69.537264111
-26066.585923 1877.5933743 47.039356825999995
-26049.493406999998 1877.6307585000002 45.542201397
-26057.597734 1875.3319738999999 47.264537215000004
-26062.732696000003 1878.7432671000001 46.790122988
-26051.159666 1877.6808259999998 46.594253181000006
-26049.068828999996 1878.7204029999998 46.50506973
-26049.837876999998 1879.3829677 47.076970339
-26043.618776 1881.6528794 45.848429200000005
-26044.353104 1882.1752551 45.590141415
-26066.198731999997 1885.4179861999999 43.816527727
-26043.819046 1885.1961849 57.547128198
-26030.566408000002 1886.774659 50.03300011500001
-26038.053895 1879.8103807 46.643528344
-26067.354964 1884.3986034999998 44.287604095
-26043.343732 1878.4588816 46.249285341
-26053.568268 1874.4978427 47.371432185
-26049.731064 1887.7523181999998 64.52194154
-26045.688249 1886.6361381 60.179114345
-26045.143509 1886.6554973000002 59.50682759
-26036.865617 1881.226802 46.924638746999996
-26029.5784 1891.0856727 60.261517764000004
-26027.954862 1892.1694756999998 61.733326319
-26040.051268000003 1885.2480885 57.522428033
-26035.578534 1885.7496021 53.074291347000006
-26032.203295000003 1882.7657226 45.903629065000004
-26032.964328000002 1879.356766 45.993709566
-26046.374515 1881.5265419999998 45.244568586
-26045.418546 1881.3272716 45.281723144
-26043.546676 1879.4682501000002 46.557182077
-26035.207366 1884.6709727999998 50.343775748
-26038.005826 1881.2878847 46.513351801
-26031.789399 1881.6492079 45.844674113
-26024.977496000003 1882.697964 46.039229628
-26024.128340000003 1882.0348981 45.904755589
-26035.543821 1881.4022066 47.136467693
-26023.596955999998 1895.8386181 64.062234761
-26023.361965999997 1895.6804034 65.34247100500001
-26030.619810999997 1887.9233835 54.893007876
-26029.538346 1888.5120155999998 54.85184789
-26044.419863 1904.6550754 67.29246974099999
-26032.019041 1880.8998586 45.862573386
-26033.514402 1882.2146412999998 46.71973586
-26036.585239 1886.1960411 53.505104779
-26031.906894 1887.2701645 55.158638955
-26032.243348999997 1887.4383927 60.107204318
-26031.834794000002 1888.4279015000002 58.713606000000006
-26030.649183 1888.3209226 56.360977889999994
-26032.280729000002 1886.4550593 51.15767121499999
-26033.8295 1886.7442846000001 56.75380230099999
-26031.420898 1889.084792 60.765826702
-26029.519656 1899.8161791 71.3592768
-26024.817273 1897.9566570999998 64.96550142599999
-26046.502685 1896.4005473 67.924284932
-26039.551923 1899.8715875999999 69.645431639
-26039.191436999998 1895.8856818999998 68.994548917
-26032.235334 1888.5071751 62.816900013
-26043.252942 1899.0070819999999 68.151175974
-26042.134097 1898.3947514000001 68.666374686
-26047.893907 1899.3473764999999 67.724117636
-26071.779636000003 1900.0057699000001 65.387344358
-26023.6557 1897.7951048 73.0749369
-26024.494174 1897.8872297 72.66888614999999
-26027.284619 1900.0037672 71.0383415
-26024.336625 1896.2436675000001 67.827215792
-26029.12445 1890.7996177 61.449670792999996
-26033.322147 1901.1343001000002 71.6202557
-26023.500825 1893.5491799000001 71.3200152
-26022.867969 1894.0767285999998 72.16939624999999
-26033.180621000003 1897.6899627 69.719240066
-26033.089831 1896.0180281 71.63231376
-26038.932416 1898.7911222 71.15998567999999
-26040.136716999998 1896.9733236999998 69.419604541
-26024.475477 1897.8458408000001 70.05855444
-26024.462128 1898.5275981000002 70.69174644
-26032.355496 1896.1568828999998 68.033683298
-26032.481006 1895.7039353 69.636502859
-26033.266069999998 1898.367548 70.66066266
-26043.773651 1898.2076645 67.798677086
-26042.996595000004 1897.7919338000002 68.164736031
-26032.000351000002 1888.8039113999998 65.493947267
-26045.941921999998 1895.039034 69.864395258
-26033.786772 1896.4536192 71.04084491
-26030.862809 1891.17012 64.347767827
-26038.393024 1895.0353625 69.51202154399999
-26047.672272999996 1895.3744887 71.55124543
-26053.295898 1895.4137090000002 68.71427297700001
-26038.304901 1894.0004587 69.969266654
-26047.445298 1896.0103512 70.46979961
-26059.405519 1893.5768845 69.142770767
-26046.435926 1895.8467962 70.10639013000001
-26052.294541 1897.1126797000002 67.300730945
-26030.718616000002 1890.5045509 66.993689539
-26044.462583999997 1894.9969766000002 68.104654548
-26029.637144 1891.7719366000001 65.83645343799999
-26027.591702 1892.8847790999998 67.20149219000001
-26030.021668 1891.3455245999999 66.64811671
-26027.191162000003 1893.3232066 68.142309788
-26030.446246000003 1892.2492505 63.813230397
-26022.387314 1896.7420101 72.19430505
-26037.901687 1897.2019675000001 70.83998922
-26032.227326 1892.2604323 68.019998074
-26025.621034 1894.2973616 72.71409333999999
-26032.232667 1894.5760728999999 72.38352002
-26033.909608 1893.5967442 71.24954459
-26032.670594 1894.6177957 74.45603907
-26037.397000999998 1891.2851097 69.8559463
-26036.713409 1890.9539936 69.422650339
-26038.134003 1895.3372717999998 70.2406138
-26028.747940999998 1893.2622912 68.268543483
-26046.310423 1893.0727004 67.834141851
-26044.775008 1892.3503879 68.863391877
-26045.132827 1891.4813757 67.95964538999999
-26045.562746 1892.5124407 67.973309754
-26039.266203999996 1890.5325887000001 68.85039508199999
-26041.813658 1892.0254472000001 69.05235648499999
-26037.754820000002 1891.7161942 70.58403793
-26060.617828 1897.2545381999998 72.92965652
-26037.853625 1892.2644377 71.50416077
-26036.948392000002 1893.0738687 73.36724997
-26047.172928 1894.0894125999998 72.16263712
-26046.104812 1894.478607 71.50495352
-26055.568315 1889.693785 69.973877071
-26038.585279000003 1890.2775766 68.522492052
-26044.054029000003 1891.5566446 67.138156295
-26053.958133 1896.0906265 73.24669064999999
-26053.108977000004 1895.3891753999999 73.97991419
-26050.638964 1888.5282038 70.77919842
-26050.831226 1890.0067088 68.972560762
-26051.92604 1887.2850178 71.80431783
-26054.484176 1893.8175438 71.3345766
-26066.00647 1893.1469676 69.049039486
-26067.125322 1896.5831283 58.377817274
-26070.874402999998 1898.2473853 63.596311211999996
-26069.266888000002 1895.1226476000002 62.310713528
-26060.062406 1897.4583152 71.64001166
-26067.69676 1906.8861007 67.424064876
-26061.023709 1894.416356 71.34504916
-26056.852723999997 1892.4431799 71.97045982
-26055.165101 1892.9538725999998 70.56148644999999
-26053.720476 1893.3822873000001 69.57496106400001
-26061.80878 1888.7923956999998 63.470181824
-26060.932919 1888.8686656 63.867324591000006
-26057.079699 1892.367911 69.689387082
-26057.328031 1893.3265448999998 69.766825436
-26052.78053 1890.4614925 68.609714509
-26051.987458 1889.8389818 69.27810013599999
-26048.195649 1892.1586278 70.10981145
-26055.442812 1893.007445 72.00940845
-26050.964737000002 1888.4521005000001 72.72429464999999
-26060.705951 1895.3332664 73.31223788
-26062.476349 1896.3982107000002 73.76752201000001
-26062.09984 1897.3838807 72.7703571
-26061.974337 1895.4312327999999 73.92955423
-26063.520434 1890.9878729 72.76309726
-26063.461683 1890.1741026 71.80060447
-26065.667341 1894.4011687999998 71.26727699
-26064.994431 1893.6960462 71.44535181
-26061.298753000003 1896.3900325999998 73.53441416999999
-26061.720656999998 1893.6244488 73.58375192
-26065.779495 1890.2555469 69.87367868599999
-26062.211987000002 1893.3190346 72.94751408
-26062.489698 1889.0143635999998 68.526226279
-26057.26662 1889.0726092000002 68.972519042
-26037.594604 1891.3870808000001 71.75815108
-26053.400037000003 1889.8436543 69.124516846
-26054.679105 1884.0462921 66.145831346
-26056.217194 1887.266493 69.038963315
-26054.310611 1890.6083581 69.677600265
-26052.903366 1889.8206235999999 70.15729252
-26055.143737000002 1890.3710363999999 70.10365725999999
-26026.112364 1893.2751418 70.22730407
-26053.533555 1890.2683975 70.88381944
-26061.248017 1894.3178891 73.85476532
-26054.793933 1894.6600196999998 76.47617460000001
-26035.794827 1890.3004406999999 72.97749221000001
-26035.738757 1890.2408601999998 74.4696617
-26034.886934000002 1891.8166638 74.89834723
-26035.380938000002 1891.0594703000002 75.09724201
-26035.386279 1892.2494171 75.08105339
-26034.379581 1893.1180954 75.43956041999999
-26035.194016999998 1893.0268049 76.0144651
-26033.415604 1893.3921335 73.99261891
-26034.331511999997 1892.9415224999998 72.58468868
-26033.896252 1894.0358402000002 76.77295206
-26034.382247999998 1893.2397603 76.54612363999999
-26046.817783 1891.2914517000002 67.721489073
-26035.268784000004 1891.2236931000002 71.77429798
-26052.187728 1886.4136697 70.80346048999999
-26051.002124000002 1887.9185436999999 71.57296237
-26049.407958 1891.65144 67.912122607
-26050.088883000004 1890.2154922 68.25285553799999
-26043.725589 1890.1432277000001 67.347523572
-26042.56935 1894.5073126000002 68.931296469
-26042.969897000003 1893.5922383 69.227218627
-26037.984469 1884.4218015000001 59.601059553000006
-26036.857602 1883.9323040999998 59.409362075
-26037.559890999997 1883.9469907999999 58.386328819
-26042.612078 1889.186096 67.515709996
-26050.43602 1889.727497 71.09239396000001
-26034.782788 1891.6884896000001 70.65699102
-26032.825469000003 1888.0876063 61.984437704
-26032.862856 1892.5057648 71.13430499
-26042.812347999996 1887.2828485 63.459876179000005
-26036.368939 1888.1184819 67.226254942
-26039.487838 1888.8396260999998 68.016952276
-26034.115219 1890.327978 68.002286555
-26044.96727 1889.5332337 68.3000654
-26050.027465 1889.2541885 67.499458789
-26042.836379 1886.6785286999998 62.43248284
-26037.714766 1889.9951938000002 68.129897115
-26050.096890999997 1887.1224645 65.434074405
-26047.458647 1892.1190736 67.066267135
-26042.911146 1887.4325512 64.569735524
-26041.413118 1888.3516309 67.520549894
-26037.370303 1889.0844581000001 67.12025702199999
-26041.410444 1885.6027365000002 57.580423355
-26047.992705 1887.0206593 58.526644113
-26046.542739000004 1887.9641052999998 65.758243201
-26054.372021999996 1884.1729641 63.978829978
-26050.50812 1888.0028251 69.005396964
-26050.246432 1885.8726026 66.067579389
-26052.727127000002 1885.5257988 71.0653573
-26053.28789 1886.6094352 71.74463275000001
-26055.661772 1888.1962540000002 69.238546489
-26055.536269 1887.0316745 69.784682989
-26064.40697 1888.4107116 66.823375227
-26055.309294000002 1885.0287911 62.784314159000004
-26063.995741000002 1887.8607986 65.776059034
-26067.662047 1888.9015439 64.773532747
-26054.412076 1884.6387623 62.406113741999995
-26060.778044000002 1873.1164697 47.234684231
-26057.151791999997 1876.3758894999999 47.366905214999996
-26066.182709 1887.9343987 63.534498216
-26065.766145999998 1888.6016366000001 61.651507022
-26057.704547 1886.9233607 66.676989197
-26058.356093 1887.6763822 66.317167875
-26070.882418 1899.5291231 66.95659756799999
-26071.282958 1899.2095234 66.649785636
-26071.841047 1899.7901439999998 66.58144294899999
-26058.930205 1873.9516018999998 47.196069361
-26060.553743 1880.3966762 46.70269191
-26054.727173999996 1876.1389017 47.436249259
-26054.671097 1884.8051551 58.168387409999994
-26054.227829 1884.6192358 59.027573464999996
-26057.784654999996 1885.9144927 59.387102725999995
-26053.984831 1884.0604782999999 65.148812533
-26048.954007999997 1876.6305684 44.525781271999996
-26053.010179 1884.6688035 61.109542844
-26054.703143 1874.4187356999998 47.497436406
-26049.789808 1885.6286049999999 67.13652908899999
-26049.229052 1885.3931186999998 68.084314466
-26050.27313 1884.7275496 67.643508317
-26048.852536 1887.5875949 65.754112599
-26047.429275000002 1887.6348260000002 65.294635294
-26048.302462 1888.0293607 64.749896526
-26047.528072999998 1887.3746395 64.124214651
-26061.386869 1876.6998291999998 47.584429381999996
-26055.888746999997 1885.3261945 61.140835287
-26054.914095 1884.9673745 60.825031994999996
-26058.585742 1875.0412463999999 47.279036042
-26059.421541999996 1878.3921240000002 47.333380577
-26057.827376 1877.2527459 47.3701179
-26058.537673 1879.9685954000001 46.215906737
-26050.291827 1886.8515967 59.782785174000004
-26056.604385000002 1885.2797985 67.498436572
-26070.273593 1878.627443 46.096953749
-26070.540622 1877.0643234 46.074110271
-26066.794208 1889.3399714 60.249814394
-26066.252135 1888.999343 59.574607015
-26066.812897999996 1889.8431538 58.98843706
-26056.412123000002 1885.6836795999998 60.562196373
-26056.951522 1886.3898039 60.35612523499999
-26067.726132000003 1891.4521696 65.204909441
-26057.282636 1885.3574039999999 56.535318497000006
-26056.494905 1885.2073667000002 57.642611859
-26047.957991999996 1887.2543094999999 59.984725716999996
-26045.386507000003 1884.8036529 56.604015825000005
-26039.776231 1887.2945308 61.330550910999996
-26043.044664 1886.3185403999998 60.288158056
-26042.120741000002 1887.1092793 60.338392856000006
-26041.75224 1887.0425223999998 62.169480324
-26042.446520999998 1886.4290235 61.350557205
-26046.152881 1884.8361966 56.00528717
-26038.948439000003 1884.8145008 59.456259009
-26039.24484 1885.2517607000002 60.140228274
-26037.250133999998 1886.5919114 53.806680438
-26034.6653 1884.7887996 61.386314031
-26024.280548000002 1891.4211274000002 63.197541239
-26035.645292999998 1888.1568671 67.450642588
-26030.328750999997 1890.7323596 65.78757465
-26035.429 1884.8285197 63.441476224000006
-26035.53848 1889.1779185999999 68.161815407
-26069.071958999997 1954.9315926000002 43.47786009
-26076.858521 1955.2256584 43.475607035
-26072.930527 1954.6395301999999 43.487143518
-26013.813020999998 1865.9440758 45.877510308000005
-26041.949843 1909.8234176 89.89412187
-26042.534636999997 1909.9629402 88.78668246000001
-26042.120741000002 1910.3289366000001 91.62753523
-26068.182756000002 1954.2553421999999 43.531328442
-26072.206881 1953.6797287000002 43.40417683
-26076.372525000002 1957.3552131 43.206742404
-26061.675261999997 1871.0655215000002 46.698394421
-26061.669921 1872.550869 47.057923675
-26037.832260999996 1866.3861755 45.901501177
-26040.863037000003 1869.2183495999998 45.476904508000004
-26040.000532000002 1870.0696707 45.500686763000004
-26036.561201 1872.1923829 45.684123037000006
-26038.310242 1864.1294476 45.979231599
-26037.39166 1865.1369807 45.987889171
-26052.046202 1876.8673896 46.450266240000005
-26051.116944999998 1877.0189284 46.039980651
-26039.09798 1866.4397479 45.989224316
-26039.810944 1865.4081823999998 46.05708718099999
-26047.827148 1864.1955374000001 45.457690957
-26040.945819 1870.3879355000001 45.420098304
-26041.202166 1861.9985579999998 46.077886225
-26043.017959 1864.8809669 45.720297097999996
-26046.937944999998 1861.5981818 46.14305794
-26047.821807 1862.0135786 45.835620166
-26038.264847 1867.7728888 45.948189497
-26043.410491 1863.7751342 45.896974207
-26041.17012 1864.3212077 45.975852013
-26041.017912 1871.3592526999998 45.297098161
-26071.226881000002 1883.0103872999998 43.790575864
-26048.484041999996 1877.7288915 44.89634633399999
-26054.126356999997 1873.7071038000001 47.435289622
-26058.329388000002 1872.5431921 47.01878726299999
-26061.071777999998 1867.7783964 46.013799307
-26071.833038999997 1905.0294158 66.752049329
-26070.281601000002 1904.6841142 67.172870037
-26048.059463999998 1879.1851995 46.198967101
-26054.882049 1872.0613715999998 46.790415049
-26049.581529999996 1877.0725014999998 44.92855668
-26043.957898 1877.6517865 45.279470089
-26052.67105 1877.9151439999998 46.769365670999996
-26035.060499 1884.7901345 56.445091962
-26034.582518000003 1886.5535262 63.013458249
-26040.507892 1887.7947095 62.5061661
-26037.234118 1868.7345264 45.741868018
-26031.677245000003 1867.1607255000001 45.905631779
-26039.343644999997 1873.0223414 45.346519351
-26038.296893 1873.6331698 45.478343967
-26033.645245999996 1878.1054019 45.720672606
-26037.402341999998 1877.8407095 46.473839880999996
-26036.515806 1876.8036364000002 46.105590461
-26042.753604 1877.9365065999998 45.185154679
-26040.248871000003 1878.2354115 44.904065129
-26027.674484000003 1872.7180955 45.692050460000004
-26027.946854 1878.3345462000002 45.303273204
-26027.351378000003 1874.8594998 45.345538854
-26036.622618999998 1865.4128549 45.905214551
-26036.726758 1866.1405084 45.842713119
-26036.708068 1871.5371612 45.560538772
-26037.057879000004 1869.8633912 45.618054272
-26036.024476 1869.2337034 45.646446944
-26030.593106 1866.7181253 45.767235758999995
-26031.848143000003 1868.0354119 45.811170342000004
-26026.355362000002 1861.9807003 46.298623084000006
-26034.267427 1870.7177159999999 45.789870623
-26033.50372 1870.0901982 45.84033489
-26027.741243 1879.2840003 45.277822015999995
-26029.976273 1874.6881006 45.298850533999996
-26028.790662000003 1878.8562534 45.208436252
-26033.057785 1877.0055773 45.347958803
-26036.048507000003 1885.0968836 55.742639302
-26030.139163 1882.2415115 45.291048285
-26036.067197 1884.4528437000001 56.847783923
-26026.184463999998 1881.1320066 45.399925116
-26027.442167999998 1877.556324 45.227441189
-26022.662351000003 1879.6740291 45.259776709
-26023.591615 1878.2205582 45.17503678799999
-26022.745133000004 1877.5796893 45.228338239
-26025.257874 1879.3268921000001 45.200195908
-26026.392749000002 1865.2232648000002 46.018514038
-26025.925443 1863.9750717 45.849972966
-26022.675707 1861.1592531 45.940595862
-26030.817413999997 1870.7036970999998 45.488691332
-26032.494355000003 1870.4530236 45.693114397
-26023.586274 1869.1761256 45.682996513000006
-26024.219129999998 1865.2631522 45.914602279
-26027.073666999997 1871.9440459999998 45.914894340000004
-26023.487476 1872.0401763 45.639270544
-26035.722734 1878.8664342 46.894076467
-26025.543593 1873.1850627 45.47200203
-26024.560926 1873.4539270999999 45.483475926
-26029.137799 1873.8634824 45.345517994
-26027.759933 1876.5588043999999 45.211815830999996
-26013.471224999998 1872.2668174 45.383548735
-26026.710507000003 1872.9459049000002 45.709636805
-26020.088198999998 1862.6858236 45.986241105000005
-26025.735855 1868.4227702 45.733919742
-26028.710553999998 1871.0263012 45.768696070999994
-26029.79736 1870.9198235 45.565024015
-26023.223114 1870.1002124 45.829799771
-26029.30603 1866.8274400999999 45.812693241000005
-26027.313997999998 1866.1420106 45.926764604
-26028.491594000003 1865.6942367 46.001636981999994
-26033.28476 1865.8367637000001 45.983028413
-26025.383377000002 1865.6575203 45.975330471
-26028.165814 1866.9956683 45.780044793
-26034.211349999998 1863.1107327000002 45.945310593
-26028.868102999997 1867.9638145 45.698830485
-26027.741243 1863.4037968000002 45.928579571
-26027.418137 1862.3093125 46.046343447999995
-26034.160614 1865.495968 45.881703497
-26037.21008 1862.0673183 45.910930632
-26036.414334 1861.7387054 46.273171903000005
-26031.880189000003 1860.039902 46.285730603
-26029.821398 1865.6204699999998 45.990809795
-26031.084443 1863.1644724 46.160769466
-26029.749298000002 1861.3343238 46.170616149
-26022.080231 1859.7488406 45.827776197
-26029.030993 1859.0882778999999 46.116772296
-26026.088333000003 1858.3405974000002 46.149587630999996
-26029.880142 1859.9394323999998 46.221810579
-26024.163053 1857.4770927999998 46.227025985000004
-26025.070953 1857.7694890999999 46.136298775
-26024.23782 1858.3589556 46.100625396000005
-26021.607591 1907.5266364 43.597209453
-26013.756943999997 1904.1772603 44.184547666
-26012.101367 1899.2197035 44.551482794
-26011.738207 1900.4441974000001 44.706109168
-26015.052035 1904.4643162999998 43.882429598
-26008.264163 1892.5850391 44.979563356
-26012.093352000004 1897.9067562 44.590348004999996
-26016.149523 1898.5691550000001 44.041499495
-26015.209576999998 1897.9055879 44.548958538
-26010.838314999997 1900.9176732 44.630485774
-26019.220353 1901.9490721000002 44.824102519
-26020.539474999998 1903.5071853 44.304960966
-26019.247058 1900.1027346 45.61356902200001
-26015.409854 1899.2509129999999 44.470643994
-26014.315033 1898.8109826 44.5296824
-26014.467241 1901.0388375999999 44.622057676
-26012.667464 1900.1633167999998 44.56681609100001
-26015.556714000002 1900.4386905000001 44.511616233
-26018.210981 1901.8320797000001 43.986362217
-26011.626053 1901.6364815 44.595813752
-26013.668821 1902.8022286 44.546496868999995
-26015.711595999997 1902.3701431000002 44.3104893
-26014.509962 1908.7431195 43.90900731000001
-26020.355228 1907.8474044 43.262776732
-26016.267011 1906.0381172 43.600338698
-26017.815782 1904.6874524999998 43.439558147999996
-26062.818144999997 1901.7621518 47.815054657999994
-26017.012021 1905.4262878 43.534624574
-26022.630312 1908.6466553000002 43.92653107499999
-26016.072082 1907.7025415 43.244460224
-26021.62094 1908.3560943999998 43.784025313
-26012.897113000003 1906.6522839 44.005137680000004
-26014.568712999997 1902.1089556 44.620993731999995
-26011.594007 1908.3634374 42.870286109
-26013.989260000002 1904.9741746 62.759926915
-26006.750105000003 1902.3042199 44.635388252000006
-26009.366992 1908.6700199000002 43.770027161
-26005.385588 1909.9913118999998 43.90260279300001
-26007.070544 1906.9099664999999 43.815714124
-26008.822251999998 1907.7068808000001 43.512281778
-26010.523224 1908.3222151 43.228939173
-26007.281496 1909.3731404999999 44.155237076999995
-26003.708647 1909.0547084000002 43.727135655
-26005.722043 1908.0548522 43.172925712
-26004.509734 1905.5726528999999 43.861192466
-26006.878282 1907.9215049999998 43.221116064
-26006.581881 1908.7761644 43.79572868300001
-26001.441571000003 1905.3750513000002 43.771111964999996
-26007.796857 1902.283859 44.63148713099999
-26009.305574 1905.0741437 43.530556559
-26009.844973 1904.3314696 44.135147335999996
-26008.261489000004 1901.2933492 44.770717620999996
-26008.44841 1905.4883715 43.416422609
-26006.242752000002 1906.0621503000002 43.696197867
-26008.862306000003 1902.2710084 44.716247919
-26009.674075000003 1901.1686799000001 44.697117808
